-50.00000000000000000000 5.00000000000000000000 30.94169897485430098527
-50.00000000000000000000 5.00000000000000000000 30.94169897485430098527
0.00000000000001224647 5.00000000000000000000 30.94169897485430098527
-50.00000000000000000000 5.00000000000000000000 30.94169897485430809070
0.00000000000001224647 5.00000000000000000000 30.94169897485430098527
0.00000000000001224647 5.00000000000000000000 30.94169897485430098527
-50.00000000000000000000 5.00000000000000000000 30.94169897485430453798
0.00000000000001243450 5.00000000000000000000 30.94169897485430098527
-29.99999999999999289457 5.00000000000001243450 -69.05830102514570967287
-30.34904812874566459868 5.00000000000001243450 -69.05525492827352707081
-30.69798993405000686607 5.00000000000001243450 -69.04611756552762358297
-31.04671912485886053901 5.00000000000001243450 -69.03089172023717878801
-31.39512947488248428840 5.00000000000001243450 -69.00958203034218740868
-31.74311485495313789329 5.00000000000001243450 -68.98219498698061613595
-32.09056926535303944092 5.00000000000001243450 -68.94873893251117635828
-32.43738686810291937945 5.00000000000001243450 -68.90922405797215333223
-32.78346201920127356289 5.00000000000001243450 -68.86366239997711602427
-33.12868930080458085285 5.00000000000001243450 -68.81206783704845975080
-33.47296355333855899516 5.00000000000001243450 -68.75445608538987585234
-33.81617990753085223332 5.00000000000001243450 -68.69084469409898474623
-34.15823381635513555921 5.00000000000001243450 -68.62125303982182344953
-34.49902108687724222591 5.00000000000001243450 -68.54570232085042391645
-34.83843791199329587016 5.00000000000001243450 -68.46421555066564224035
-35.17638090205035439340 5.00000000000001243450 -68.37681755092708613120
-35.51274711633991643112 5.00000000000001243450 -68.28353494391210176673
-35.84743409445466966190 5.00000000000001243450 -68.18439614440643481430
-36.18033988749887441827 5.00000000000001243450 -68.07943135104879672781
-36.51136308914306027873 5.00000000000001243450 -67.96867253713206480370
-36.84040286651329410006 5.00000000000001243450 -67.85215344086390132361
-37.16735899090592454286 5.00000000000001243450 -67.72990955508976185229
-37.49213186831815391997 5.00000000000001243450 -67.60197811648149013308
-37.81462256978538505336 5.00000000000001243450 -67.46839809419455491479
-38.13473286151591423732 5.00000000000001243450 -67.32921017799776564061
-38.45236523481389667722 5.00000000000001154632 -67.18445676587874970664
-38.76742293578145392985 5.00000000000001154632 -67.03418195112908506417
-39.07980999479083550341 5.00000000000001154632 -66.87843150891310983752
-39.38943125571771020077 5.00000000000001154632 -66.71725288232428852098
-39.69619240492663436726 5.00000000000001154632 -66.55069516793368222807
-39.99999999999989341859 5.00000000000001154632 -66.37880910083453045445
-40.30076149820096986787 5.00000000000001154632 -66.20164703918801762939
-40.59838528466399054651 5.00000000000001154632 -66.01926294827428876033
-40.89278070030042755434 5.00000000000001154632 -65.83171238405425640394
-41.18385806941482485399 5.00000000000001154632 -65.63905247624661853934
-41.47152872702081083389 5.00000000000001154632 -65.44134191092561536607
-41.75570504584934639070 5.00000000000001154632 -65.23864091264474041054
-42.03630046304084544317 5.00000000000001154632 -65.03101122609164974619
-42.31322950651304637404 5.00000000000001154632 -64.81851609728023788648
-42.58640782099662658311 5.00000000000001154632 -64.60122025428522363200
-42.85575219373066602202 5.00000000000001154632 -64.37918988752537075015
-43.12118057981002294810 5.00000000000001154632 -64.15249262960125520294
-43.38261212717704040642 5.00000000000001154632 -63.92119753469370380117
-43.63996720124984562972 5.00000000000001154632 -63.68537505752922811553
-43.89316740917981718439 5.00000000000001154632 -63.44509703191884852913
-44.14213562373082311296 5.00000000000001154632 -63.20043664887678147579
-44.38679600677289727173 5.00000000000001154632 -62.95146843432578265265
-44.62707403238327685813 5.00000000000001154632 -62.69826822639581109797
-44.86289650954775254377 5.00000000000001154632 -62.44091315232301298010
-45.09419160445531105097 5.00000000000001154632 -62.17948160495599552178
-45.32088886237943370361 5.00000000000001154632 -61.91405321887664570113
-45.54291922913928658545 5.00000000000001154632 -61.64470884614261336765
-45.76021507213430794536 5.00000000000001154632 -61.37153053165903315858
-45.97271020094572691050 5.00000000000001154632 -61.09460148818683933314
-46.18033988749881757485 5.00000000000001154632 -60.81400607099534738609
-46.38304088577970674123 5.00000000000001154632 -60.52982975216680472386
-46.58075145110070991450 5.00000000000001154632 -60.24215909456082584938
-46.77341135890835488453 5.00000000000001065814 -59.95108172544643565516
-46.96096192312839434635 5.00000000000001065814 -59.65668630980999864732
-47.14334601404212321540 5.00000000000001065814 -59.35906252334699217954
-47.32050807568865025132 5.00000000000001065814 -59.05830102514591573026
-47.49239414278780202494 5.00000000000001065814 -58.75449343007265667893
-47.65895185717842252870 5.00000000000001065814 -58.44773228086373961787
-47.82013048376724384525 5.00000000000001065814 -58.13811101993686492051
-47.97588092598322617732 5.00000000000001065814 -57.82572396092748334695
-48.12615574073289081980 5.00000000000001065814 -57.51066625995992609433
-48.27090915285191385919 5.00000000000001065814 -57.19303388666195075984
-48.41009706904870313338 5.00000000000001065814 -56.87292359493142868132
-48.54367709133564545709 5.00000000000001065814 -56.55043289346419754793
-48.67160852994393849258 5.00000000000001065814 -56.22566001605196817081
-48.79385241571807085847 5.00000000000001065814 -55.89870389165934483344
-48.91037151198624144399 5.00000000000001065814 -55.56966411428910390669
-49.02113032590298047353 5.00000000000001065814 -55.23864091264492515165
-49.12609511926062566545 5.00000000000001065814 -54.90573511960072039528
-49.22523391876629261787 5.00000000000001065814 -54.57104814148597426993
-49.31851652578129119320 5.00000000000001065814 -54.23468192719641223221
-49.40591452551986151320 5.00000000000001065814 -53.89673893713935370897
-49.48740129570463608388 5.00000000000001065814 -53.55732211202330717015
-49.56295201467604982781 5.00000000000001065814 -53.21653484150119339802
-49.63254366895321822994 5.00000000000001065814 -52.87448093267691007213
-49.69615506024410933605 5.00000000000000976996 -52.53126457848462393940
-49.75376681190270744537 5.00000000000000976996 -52.18699032595064579709
-49.80536137483136371884 5.00000000000000976996 -51.84176304434733850712
-49.85092303282640102680 5.00000000000000976996 -51.49568789324898432369
-49.89043790736543115827 5.00000000000000976996 -51.14887029049910438516
-49.92389396183487804137 5.00000000000000976996 -50.80141588009920639024
-49.95128100519646352495 5.00000000000000976996 -50.45343050002855278535
-49.97259069509146200971 5.00000000000000976996 -50.10502015000492548324
-49.98781654038189969924 5.00000000000000976996 -49.75629095919607891574
-49.99695390312781739794 5.00000000000000976996 -49.40734915389172954292
-50.00000000000000000000 5.00000000000000976996 -49.05830102514570967287
-20.00000000000000000000 5.00000000000001243450 -69.05830102514569546202
-30.00000000000000000000 5.00000000000001243450 -69.05830102514569546202
0.00000000000000000000 5.00000000000000976996 -49.05830102514570256744
-0.00304609687217549663 5.00000000000000976996 -49.40734915389136716612
-0.01218345961808608990 5.00000000000000976996 -49.75629095919571653894
-0.02740930490852377943 5.00000000000000976996 -50.10502015000456310645
-0.04871899480351515876 5.00000000000000976996 -50.45343050002819040856
-0.07610603816508643149 5.00000000000000976996 -50.80141588009884401345
-0.10956209263453331459 5.00000000000000976996 -51.14887029049874911379
-0.14907696717355634064 5.00000000000000976996 -51.49568789324862194690
-0.19463862516858654317 5.00000000000000976996 -51.84176304434697613033
-0.24623318809723926393 5.00000000000000976996 -52.18699032595028342030
-0.30384493975583382053 5.00000000000000976996 -52.53126457848426866803
-0.36745633104671071578 5.00000000000001065814 -52.87448093267655480076
-0.43704798532387911791 5.00000000000001065814 -53.21653484150084523208
-0.51259870429528220370 5.00000000000001065814 -53.55732211202295189878
-0.59408547448005677438 5.00000000000001065814 -53.89673893713900554303
-0.68148347421861998896 5.00000000000001065814 -54.23468192719606406627
-0.77476608123360435343 5.00000000000001065814 -54.57104814148562610399
-0.87390488073927130586 5.00000000000001065814 -54.90573511960037222934
-0.97886967409690583963 5.00000000000001065814 -55.23864091264458409114
-1.08962848801364131646 5.00000000000001065814 -55.56966411428876284617
-1.20614758428180479655 5.00000000000001065814 -55.89870389165900377293
-1.32839147005593360973 5.00000000000001065814 -56.22566001605163421573
-1.45632290866421953979 5.00000000000001065814 -56.55043289346386359284
-1.58990293095115831079 5.00000000000001065814 -56.87292359493109472623
-1.72909084714794403226 5.00000000000001065814 -57.19303388666162391019
-1.87384425926695996623 5.00000000000001065814 -57.51066625995959924467
-2.02411907401661395056 5.00000000000001065814 -57.82572396092715649729
-2.17986951623259628263 5.00000000000001065814 -58.13811101993654517628
-2.34104814282140694104 5.00000000000001065814 -58.44773228086341987364
-2.50760585721202744480 5.00000000000001065814 -58.75449343007234404013
-2.67949192431116856028 5.00000000000001065814 -59.05830102514559598603
-2.85665398595768849077 5.00000000000001065814 -59.35906252334667954074
-3.03903807687141380711 5.00000000000001065814 -59.65668630980969311395
-3.22658864109144971621 5.00000000000001065814 -59.95108172544613012178
-3.41924854889909113353 5.00000000000001154632 -60.24215909456052742144
-3.61695911422008364866 5.00000000000001154632 -60.52982975216651340133
-3.81966011250096570961 5.00000000000001154632 -60.81400607099504895814
-4.02728979905405282125 5.00000000000001154632 -61.09460148818655511604
-4.23978492786546823368 5.00000000000001154632 -61.37153053165874894148
-4.45708077086048426452 5.00000000000001154632 -61.64470884614232915055
-4.67911113762033537000 5.00000000000001154632 -61.91405321887636858946
-4.90580839554445446993 5.00000000000001154632 -62.17948160495572551554
-5.13710349045200409535 5.00000000000001154632 -62.44091315232274297387
-5.37292596761647445192 5.00000000000001154632 -62.69826822639554819716
-5.61320399322685581467 5.00000000000001154632 -62.95146843432551975184
-5.85786437626892286801 5.00000000000001154632 -63.20043664887652568041
-6.10683259081992346751 5.00000000000001154632 -63.44509703191859983917
-6.36003279874989502218 5.00000000000001154632 -63.68537505752898653100
-6.61738787282269491641 5.00000000000001154632 -63.92119753469346221664
-6.87881942018970704567 5.00000000000001154632 -64.15249262960101361841
-7.14424780626906041903 5.00000000000001154632 -64.37918988752514337648
-7.41359217900309452887 5.00000000000001154632 -64.60122025428499625832
-7.68677049348667118522 5.00000000000001154632 -64.81851609728001051280
-7.96369953695886678702 5.00000000000001154632 -65.03101122609143658337
-8.24429495415036406314 5.00000000000001154632 -65.23864091264452724772
-8.52847127297890139630 5.00000000000001154632 -65.44134191092541641410
-8.81614193058488027077 5.00000000000001154632 -65.63905247624640537651
-9.10721929969927046500 5.00000000000001154632 -65.83171238405405745198
-9.40161471533570392012 5.00000000000001154632 -66.01926294827410401922
-9.69923850179871571697 5.00000000000001154632 -66.20164703918783288827
-9.99999999999979394261 5.00000000000001154632 -66.37880910083435992419
-10.30380759507304588851 5.00000000000001154632 -66.55069516793349748696
-10.61056874428196650229 5.00000000000001154632 -66.71725288232411799072
-10.92019000520884119965 5.00000000000001154632 -66.87843150891293930727
-11.23257706421822277321 5.00000000000001154632 -67.03418195112892874477
-11.54763476518577647312 5.00000000000001154632 -67.18445676587859338724
-11.86526713848375713667 5.00000000000001243450 -67.32921017799760932121
-12.18537743021428099155 5.00000000000001243450 -67.46839809419441280625
-12.50786813168150857223 5.00000000000001243450 -67.60197811648134802454
-12.83264100909373794934 5.00000000000001243450 -67.72990955508964816545
-13.15959713348636483943 5.00000000000001243450 -67.85215344086377342592
-13.48863691085659866076 5.00000000000001243450 -67.96867253713195111686
-13.81966011250078096850 5.00000000000001243450 -68.07943135104868304097
-14.15256590554498927759 5.00000000000001243450 -68.18439614440632112746
-14.48725288365973540294 5.00000000000001243450 -68.28353494391200229074
-14.82361909794929744066 5.00000000000001243450 -68.37681755092698665521
-15.16156208800635241118 5.00000000000001243450 -68.46421555066555697522
-15.50097891312240250272 5.00000000000001243450 -68.54570232085033865133
-15.84176618364451094578 5.00000000000001243450 -68.62125303982173818440
-16.18382009246879249531 5.00000000000001243450 -68.69084469409892790281
-16.52703644666107862804 5.00000000000001243450 -68.75445608538980479807
-16.87131069919506387578 5.00000000000001243450 -68.81206783704840290739
-17.21653798079837116575 5.00000000000001243450 -68.86366239997707339171
-17.56261313189672534918 5.00000000000001243450 -68.90922405797209648881
-17.90943073464660173499 5.00000000000001243450 -68.94873893251113372571
-18.25688514504649617720 5.00000000000001243450 -68.98219498698058771424
-18.60487052511715688752 5.00000000000001243450 -69.00958203034215898697
-18.95328087514077708420 5.00000000000001243450 -69.03089172023716457716
-19.30201006594963075713 5.00000000000001243450 -69.04611756552759516126
-19.65095187125397302452 5.00000000000001243450 -69.05525492827351285996
-19.99999999999999644729 5.00000000000001243450 -69.05830102514570967287
0.00000000000001224647 5.00000000000000000000 30.94169897485430098527
0.00000000000000244929 5.00000000000000976996 -49.05830102514570256744
0.00000000000001224647 5.00000000000000000000 30.94169897485430098527
-50.00000000000000000000 5.00000000000000000000 30.94169897485430809070
-50.00000000000000000000 5.00000000000000976996 -49.05830102514570256744
-49.99999999999999289457 5.00000000000000000000 30.94169897485430098527
