2.50E+00	2.50E+00	2.53E+01
2.50E+00	7.50E+00	2.54E+01
2.50E+00	1.25E+01	2.54E+01
2.50E+00	1.75E+01	2.54E+01
2.50E+00	2.25E+01	2.54E+01
2.50E+00	2.75E+01	2.54E+01
2.50E+00	3.25E+01	2.54E+01
2.50E+00	3.75E+01	2.54E+01
2.50E+00	4.25E+01	2.54E+01
2.50E+00	4.75E+01	2.53E+01
7.50E+00	2.50E+00	3.05E+01
7.50E+00	7.50E+00	3.06E+01
7.50E+00	1.25E+01	3.07E+01
7.50E+00	1.75E+01	3.07E+01
7.50E+00	2.25E+01	3.07E+01
7.50E+00	2.75E+01	3.07E+01
7.50E+00	3.25E+01	3.07E+01
7.50E+00	3.75E+01	3.07E+01
7.50E+00	4.25E+01	3.06E+01
7.50E+00	4.75E+01	3.05E+01
1.25E+01	2.50E+00	3.59E+01
1.25E+01	7.50E+00	3.62E+01
1.25E+01	1.25E+01	3.63E+01
1.25E+01	1.75E+01	3.63E+01
1.25E+01	2.25E+01	3.63E+01
1.25E+01	2.75E+01	3.63E+01
1.25E+01	3.25E+01	3.63E+01
1.25E+01	3.75E+01	3.63E+01
1.25E+01	4.25E+01	3.62E+01
1.25E+01	4.75E+01	3.59E+01
1.75E+01	2.50E+00	4.15E+01
1.75E+01	7.50E+00	4.20E+01
1.75E+01	1.25E+01	4.22E+01
1.75E+01	1.75E+01	4.22E+01
1.75E+01	2.25E+01	4.22E+01
1.75E+01	2.75E+01	4.22E+01
1.75E+01	3.25E+01	4.22E+01
1.75E+01	3.75E+01	4.22E+01
1.75E+01	4.25E+01	4.20E+01
1.75E+01	4.75E+01	4.15E+01
2.25E+01	2.50E+00	4.72E+01
2.25E+01	7.50E+00	4.79E+01
2.25E+01	1.25E+01	4.84E+01
2.25E+01	1.75E+01	4.87E+01
2.25E+01	2.25E+01	4.88E+01
2.25E+01	2.75E+01	4.88E+01
2.25E+01	3.25E+01	4.87E+01
2.25E+01	3.75E+01	4.84E+01
2.25E+01	4.25E+01	4.79E+01
2.25E+01	4.75E+01	4.72E+01
2.75E+01	2.50E+00	5.24E+01
2.75E+01	7.50E+00	5.35E+01
2.75E+01	1.25E+01	5.44E+01
2.75E+01	1.75E+01	5.50E+01
2.75E+01	2.25E+01	5.53E+01
2.75E+01	2.75E+01	5.53E+01
2.75E+01	3.25E+01	5.50E+01
2.75E+01	3.75E+01	5.44E+01
2.75E+01	4.25E+01	5.35E+01
2.75E+01	4.75E+01	5.24E+01
3.25E+01	2.50E+00	5.68E+01
3.25E+01	7.50E+00	5.81E+01
3.25E+01	1.25E+01	5.92E+01
3.25E+01	1.75E+01	6.00E+01
3.25E+01	2.25E+01	6.04E+01
3.25E+01	2.75E+01	6.04E+01
3.25E+01	3.25E+01	6.00E+01
3.25E+01	3.75E+01	5.92E+01
3.25E+01	4.25E+01	5.81E+01
3.25E+01	4.75E+01	5.68E+01
3.75E+01	2.50E+00	6.01E+01
3.75E+01	7.50E+00	6.16E+01
3.75E+01	1.25E+01	6.27E+01
3.75E+01	1.75E+01	6.36E+01
3.75E+01	2.25E+01	6.40E+01
3.75E+01	2.75E+01	6.40E+01
3.75E+01	3.25E+01	6.36E+01
3.75E+01	3.75E+01	6.27E+01
3.75E+01	4.25E+01	6.16E+01
3.75E+01	4.75E+01	6.01E+01
4.25E+01	2.50E+00	6.24E+01
4.25E+01	7.50E+00	6.38E+01
4.25E+01	1.25E+01	6.50E+01
4.25E+01	1.75E+01	6.58E+01
4.25E+01	2.25E+01	6.63E+01
4.25E+01	2.75E+01	6.63E+01
4.25E+01	3.25E+01	6.58E+01
4.25E+01	3.75E+01	6.50E+01
4.25E+01	4.25E+01	6.38E+01
4.25E+01	4.75E+01	6.24E+01
4.75E+01	2.50E+00	6.37E+01
4.75E+01	7.50E+00	6.50E+01
4.75E+01	1.25E+01	6.61E+01
4.75E+01	1.75E+01	6.69E+01
4.75E+01	2.25E+01	6.73E+01
4.75E+01	2.75E+01	6.73E+01
4.75E+01	3.25E+01	6.69E+01
4.75E+01	3.75E+01	6.61E+01
4.75E+01	4.25E+01	6.50E+01
4.75E+01	4.75E+01	6.37E+01
5.25E+01	2.50E+00	6.40E+01
5.25E+01	7.50E+00	6.52E+01
5.25E+01	1.25E+01	6.62E+01
5.25E+01	1.75E+01	6.69E+01
5.25E+01	2.25E+01	6.73E+01
5.25E+01	2.75E+01	6.73E+01
5.25E+01	3.25E+01	6.69E+01
5.25E+01	3.75E+01	6.62E+01
5.25E+01	4.25E+01	6.52E+01
5.25E+01	4.75E+01	6.40E+01
5.75E+01	2.50E+00	6.33E+01
5.75E+01	7.50E+00	6.43E+01
5.75E+01	1.25E+01	6.52E+01
5.75E+01	1.75E+01	6.58E+01
5.75E+01	2.25E+01	6.61E+01
5.75E+01	2.75E+01	6.61E+01
5.75E+01	3.25E+01	6.58E+01
5.75E+01	3.75E+01	6.52E+01
5.75E+01	4.25E+01	6.43E+01
5.75E+01	4.75E+01	6.33E+01
6.25E+01	2.50E+00	6.18E+01
6.25E+01	7.50E+00	6.24E+01
6.25E+01	1.25E+01	6.30E+01
6.25E+01	1.75E+01	6.34E+01
6.25E+01	2.25E+01	6.36E+01
6.25E+01	2.75E+01	6.36E+01
6.25E+01	3.25E+01	6.34E+01
6.25E+01	3.75E+01	6.30E+01
6.25E+01	4.25E+01	6.24E+01
6.25E+01	4.75E+01	6.18E+01
6.75E+01	2.50E+00	5.94E+01
6.75E+01	7.50E+00	5.95E+01
6.75E+01	1.25E+01	5.95E+01
6.75E+01	1.75E+01	5.95E+01
6.75E+01	2.25E+01	5.95E+01
6.75E+01	2.75E+01	5.95E+01
6.75E+01	3.25E+01	5.95E+01
6.75E+01	3.75E+01	5.95E+01
6.75E+01	4.25E+01	5.95E+01
6.75E+01	4.75E+01	5.94E+01
7.25E+01	2.50E+00	5.66E+01
7.25E+01	7.50E+00	5.58E+01
7.25E+01	1.25E+01	5.50E+01
7.25E+01	1.75E+01	5.41E+01
7.25E+01	2.25E+01	5.36E+01
7.25E+01	2.75E+01	5.36E+01
7.25E+01	3.25E+01	5.41E+01
7.25E+01	3.75E+01	5.50E+01
7.25E+01	4.25E+01	5.58E+01
7.25E+01	4.75E+01	5.66E+01
7.75E+01	2.50E+00	5.40E+01
7.75E+01	7.50E+00	5.23E+01
7.75E+01	1.25E+01	5.06E+01
7.75E+01	1.75E+01	4.88E+01
7.75E+01	2.25E+01	4.76E+01
7.75E+01	2.75E+01	4.76E+01
7.75E+01	3.25E+01	4.88E+01
7.75E+01	3.75E+01	5.06E+01
7.75E+01	4.25E+01	5.23E+01
7.75E+01	4.75E+01	5.40E+01
8.25E+01	2.50E+00	5.23E+01
8.25E+01	7.50E+00	5.02E+01
8.25E+01	1.25E+01	4.79E+01
8.25E+01	1.75E+01	4.59E+01
8.25E+01	2.25E+01	4.46E+01
8.25E+01	2.75E+01	4.46E+01
8.25E+01	3.25E+01	4.59E+01
8.25E+01	3.75E+01	4.79E+01
8.25E+01	4.25E+01	5.02E+01
8.25E+01	4.75E+01	5.23E+01
8.75E+01	2.50E+00	5.19E+01
8.75E+01	7.50E+00	4.97E+01
8.75E+01	1.25E+01	4.74E+01
8.75E+01	1.75E+01	4.57E+01
8.75E+01	2.25E+01	4.47E+01
8.75E+01	2.75E+01	4.47E+01
8.75E+01	3.25E+01	4.57E+01
8.75E+01	3.75E+01	4.74E+01
8.75E+01	4.25E+01	4.97E+01
8.75E+01	4.75E+01	5.19E+01
9.25E+01	2.50E+00	5.28E+01
9.25E+01	7.50E+00	5.08E+01
9.25E+01	1.25E+01	4.89E+01
9.25E+01	1.75E+01	4.74E+01
9.25E+01	2.25E+01	4.68E+01
9.25E+01	2.75E+01	4.68E+01
9.25E+01	3.25E+01	4.74E+01
9.25E+01	3.75E+01	4.89E+01
9.25E+01	4.25E+01	5.08E+01
9.25E+01	4.75E+01	5.28E+01
9.75E+01	2.50E+00	5.49E+01
9.75E+01	7.50E+00	5.30E+01
9.75E+01	1.25E+01	5.15E+01
9.75E+01	1.75E+01	5.05E+01
9.75E+01	2.25E+01	4.99E+01
9.75E+01	2.75E+01	4.99E+01
9.75E+01	3.25E+01	5.05E+01
9.75E+01	3.75E+01	5.15E+01
9.75E+01	4.25E+01	5.30E+01
9.75E+01	4.75E+01	5.49E+01
