338.563 551.74 82.0412
338.596 551.678 82.802
338.627 551.605 83.5622
338.657 551.523 84.3217
338.686 551.43 85.0802
338.714 551.327 85.8377
338.741 551.214 86.594
338.766 551.091 87.3489
338.79 550.958 88.1022
338.813 550.815 88.8539
338.834 550.661 89.6036
338.854 550.498 90.3512
338.873 550.324 91.0967
338.89 550.14 91.8398
338.906 549.947 92.5804
338.921 549.743 93.3184
338.935 549.529 94.0536
338.947 549.306 94.7859
338.958 549.073 95.5151
338.967 548.829 96.2412
338.975 548.577 96.964
338.982 548.314 97.6833
338.988 548.041 98.399
338.992 547.759 99.111
338.994 547.468 99.8192
338.996 547.167 100.523
338.996 546.856 101.223
338.995 546.536 101.919
338.992 546.206 102.611
338.988 545.868 103.297
338.983 545.52 103.98
338.976 545.163 104.657
338.969 544.797 105.33
338.959 544.422 105.997
338.949 544.038 106.659
338.937 543.645 107.316
338.924 543.243 107.968
338.909 542.833 108.614
338.893 542.414 109.254
338.876 541.987 109.889
338.858 541.551 110.517
338.838 541.107 111.14
338.817 540.654 111.756
338.794 540.194 112.367
338.771 539.726 112.971
338.746 539.249 113.568
338.719 538.765 114.159
338.692 538.273 114.744
338.663 537.774 115.321
338.633 537.267 115.892
338.602 536.752 116.456
338.57 536.231 117.013
338.536 535.702 117.562
338.501 535.166 118.105
338.465 534.623 118.64
338.427 534.073 119.168
338.389 533.517 119.688
338.349 532.953 120.201
338.308 532.384 120.706
338.266 531.808 121.204
338.223 531.225 121.694
338.179 530.637 122.176
338.133 530.042 122.65
338.087 529.442 123.117
338.039 528.835 123.575
337.99 528.223 124.025
337.94 527.605 124.467
337.889 526.982 124.901
337.837 526.354 125.326
337.784 525.72 125.744
337.73 525.081 126.153
337.675 524.437 126.553
337.619 523.788 126.946
337.561 523.135 127.329
337.503 522.477 127.704
337.444 521.814 128.071
337.384 521.148 128.429
337.323 520.476 128.778
337.26 519.801 129.119
337.197 519.122 129.451
337.133 518.438 129.774
337.069 517.751 130.088
337.003 517.061 130.394
336.936 516.366 130.69
336.869 515.668 130.978
336.8 514.967 131.257
336.731 514.263 131.527
336.661 513.555 131.789
336.59 512.845 132.041
336.518 512.131 132.284
336.446 511.415 132.518
336.372 510.696 132.744
336.298 509.975 132.96
336.223 509.251 133.167
336.148 508.525 133.366
336.071 507.797 133.555
335.994 507.067 133.735
335.917 506.335 133.906
335.838 505.601 134.068
335.759 504.866 134.221
335.679 504.129 134.366
335.599 503.391 134.501
335.518 502.651 134.626
335.436 501.911 134.743
335.354 501.169 134.851
338.258 551.499 81.2743
338.292 551.448 82.0312
338.324 551.386 82.7877
338.356 551.314 83.5435
338.386 551.232 84.2987
338.415 551.14 85.053
338.442 551.037 85.8062
338.469 550.925 86.5581
338.494 550.803 87.3087
338.518 550.67 88.0578
338.54 550.528 88.8051
338.561 550.375 89.5505
338.581 550.212 90.2939
338.6 550.04 91.0351
338.617 549.857 91.774
338.633 549.665 92.5103
338.648 549.462 93.2441
338.662 549.25 93.9751
338.674 549.028 94.7032
338.684 548.796 95.4282
338.694 548.554 96.1502
338.702 548.302 96.8688
338.709 548.041 97.584
338.714 547.77 98.2956
338.718 547.49 99.0035
338.721 547.2 99.7076
338.722 546.901 100.408
338.723 546.592 101.104
338.721 546.273 101.796
338.719 545.946 102.483
338.715 545.609 103.166
338.71 545.263 103.844
338.703 544.908 104.518
338.695 544.544 105.186
338.686 544.171 105.85
338.676 543.789 106.508
338.664 543.399 107.162
338.651 542.999 107.81
338.636 542.592 108.452
338.62 542.175 109.088
338.603 541.75 109.719
338.585 541.317 110.344
338.565 540.875 110.963
338.544 540.426 111.576
338.522 539.968 112.183
338.498 539.502 112.784
338.474 539.028 113.378
338.448 538.547 113.966
338.42 538.058 114.547
338.392 537.561 115.121
338.362 537.057 115.689
338.331 536.546 116.249
338.299 536.027 116.803
338.265 535.501 117.349
338.23 534.968 117.889
338.194 534.428 118.421
338.157 533.882 118.946
338.119 533.328 119.463
338.079 532.768 119.974
338.039 532.202 120.476
337.997 531.629 120.971
337.954 531.05 121.458
337.91 530.464 121.938
337.865 529.873 122.409
337.818 529.276 122.873
337.771 528.673 123.328
337.722 528.064 123.776
337.673 527.45 124.216
337.622 526.83 124.647
337.57 526.205 125.07
337.517 525.575 125.485
337.464 524.939 125.892
337.409 524.299 126.291
337.353 523.654 126.681
337.296 523.004 127.062
337.238 522.35 127.435
337.179 521.691 127.8
337.119 521.027 128.156
337.058 520.36 128.503
336.997 519.688 128.842
336.934 519.012 129.172
336.87 518.333 129.493
336.806 517.649 129.806
336.74 516.962 130.11
336.674 516.272 130.405
336.607 515.578 130.691
336.539 514.88 130.969
336.47 514.18 131.238
336.4 513.476 131.498
336.33 512.769 131.748
336.258 512.06 131.99
336.186 511.347 132.224
336.113 510.632 132.448
336.04 509.915 132.663
335.965 509.195 132.869
335.89 508.473 133.066
335.814 507.748 133.254
335.737 507.022 133.434
335.66 506.294 133.604
335.582 505.564 133.765
335.503 504.832 133.918
335.424 504.099 134.061
335.344 503.365 134.195
335.263 502.629 134.32
335.182 501.892 134.437
335.1 501.155 134.544
337.992 551.203 81.2681
338.026 551.152 82.0207
338.058 551.09 82.7728
338.089 551.018 83.5243
338.119 550.937 84.2751
338.148 550.845 85.025
338.175 550.743 85.7738
338.202 550.632 86.5215
338.227 550.51 87.2677
338.25 550.378 88.0124
338.273 550.237 88.7554
338.294 550.085 89.4965
338.314 549.923 90.2356
338.332 549.752 90.9725
338.35 549.57 91.707
338.365 549.379 92.4391
338.38 549.178 93.1686
338.393 548.966 93.8953
338.405 548.745 94.6192
338.416 548.515 95.34
338.425 548.274 96.0578
338.434 548.024 96.7722
338.44 547.765 97.4832
338.446 547.496 98.1907
338.45 547.217 98.8945
338.453 546.928 99.5945
338.454 546.631 100.29
338.454 546.324 100.982
338.453 546.007 101.67
338.45 545.682 102.354
338.446 545.347 103.033
338.441 545.003 103.707
338.435 544.65 104.377
338.427 544.288 105.041
338.418 543.917 105.701
338.407 543.538 106.356
338.396 543.149 107.005
338.383 542.752 107.649
338.368 542.347 108.288
338.352 541.933 108.921
338.335 541.51 109.548
338.317 541.08 110.169
338.298 540.641 110.785
338.277 540.193 111.394
338.255 539.738 111.998
338.231 539.275 112.595
338.207 538.804 113.185
338.181 538.326 113.77
338.153 537.84 114.347
338.125 537.346 114.918
338.095 536.845 115.483
338.065 536.336 116.04
338.032 535.82 116.591
337.999 535.297 117.134
337.965 534.767 117.67
337.929 534.231 118.2
337.892 533.687 118.721
337.854 533.137 119.236
337.815 532.58 119.743
337.774 532.017 120.243
337.733 531.447 120.735
337.69 530.871 121.219
337.646 530.289 121.696
337.601 529.701 122.165
337.555 529.107 122.626
337.508 528.508 123.079
337.46 527.902 123.524
337.41 527.291 123.961
337.36 526.675 124.39
337.308 526.054 124.811
337.256 525.427 125.224
337.202 524.795 125.629
337.148 524.158 126.025
337.092 523.517 126.413
337.035 522.871 126.792
336.978 522.22 127.163
336.919 521.564 127.526
336.86 520.905 127.88
336.799 520.241 128.225
336.738 519.573 128.562
336.676 518.901 128.89
336.612 518.225 129.21
336.548 517.546 129.521
336.483 516.862 129.823
336.417 516.175 130.117
336.35 515.485 130.401
336.283 514.791 130.677
336.214 514.095 130.945
336.145 513.395 131.203
336.075 512.692 131.453
336.004 511.986 131.693
335.932 511.277 131.925
335.859 510.566 132.148
335.786 509.853 132.362
335.712 509.137 132.567
335.637 508.418 132.763
335.562 507.698 132.951
335.485 506.975 133.129
335.408 506.251 133.298
335.331 505.525 133.459
335.252 504.797 133.61
335.173 504.068 133.753
335.094 503.338 133.886
335.014 502.606 134.011
334.933 501.873 134.126
334.852 501.139 134.233
337.731 550.903 81.2615
337.765 550.852 82.0096
337.797 550.79 82.7573
337.828 550.719 83.5044
337.858 550.638 84.2509
337.886 550.547 84.9964
337.914 550.446 85.7408
337.94 550.335 86.484
337.965 550.214 87.2259
337.988 550.083 87.9662
338.01 549.942 88.7048
338.031 549.791 89.4416
338.051 549.631 90.1763
338.07 549.46 90.9088
338.087 549.28 91.639
338.103 549.089 92.3668
338.117 548.889 93.092
338.13 548.679 93.8144
338.142 548.46 94.534
338.153 548.23 95.2506
338.162 547.991 95.964
338.17 547.743 96.6742
338.177 547.485 97.3811
338.182 547.217 98.0843
338.186 546.94 98.784
338.189 546.653 99.4798
338.191 546.357 100.172
338.191 546.052 100.86
338.189 545.738 101.543
338.187 545.414 102.223
338.183 545.081 102.898
338.178 544.739 103.568
338.171 544.388 104.234
338.164 544.029 104.894
338.155 543.66 105.55
338.144 543.283 106.201
338.132 542.897 106.847
338.119 542.502 107.487
338.105 542.099 108.122
338.09 541.687 108.751
338.073 541.267 109.374
338.054 540.839 109.992
338.035 540.403 110.604
338.014 539.958 111.21
337.992 539.506 111.81
337.969 539.045 112.403
337.945 538.577 112.991
337.919 538.101 113.571
337.892 537.618 114.146
337.864 537.127 114.713
337.834 536.629 115.274
337.803 536.123 115.829
337.771 535.61 116.376
337.738 535.091 116.916
337.704 534.564 117.449
337.669 534.03 117.975
337.632 533.49 118.494
337.594 532.943 119.006
337.555 532.389 119.51
337.515 531.829 120.007
337.473 531.263 120.496
337.431 530.69 120.978
337.387 530.111 121.452
337.343 529.527 121.918
337.297 528.936 122.376
337.25 528.34 122.827
337.202 527.738 123.27
337.153 527.131 123.704
337.103 526.518 124.131
337.051 525.9 124.549
336.999 525.277 124.96
336.946 524.649 125.362
336.892 524.016 125.756
336.836 523.378 126.142
336.78 522.735 126.519
336.723 522.088 126.888
336.665 521.436 127.248
336.605 520.78 127.6
336.545 520.12 127.944
336.484 519.456 128.279
336.422 518.788 128.605
336.359 518.116 128.923
336.296 517.44 129.232
336.231 516.76 129.533
336.165 516.077 129.825
336.099 515.391 130.108
336.032 514.701 130.383
335.963 514.008 130.648
335.894 513.312 130.905
335.825 512.613 131.153
335.754 511.911 131.393
335.683 511.206 131.623
335.61 510.499 131.845
335.538 509.789 132.058
335.464 509.077 132.262
335.389 508.362 132.457
335.314 507.646 132.643
335.239 506.927 132.821
335.162 506.207 132.989
335.085 505.485 133.149
335.007 504.761 133.299
334.928 504.036 133.441
334.849 503.309 133.574
334.77 502.581 133.698
334.689 501.852 133.813
334.608 501.122 133.919
337.476 550.599 81.2544
337.509 550.548 81.998
337.541 550.487 82.7413
337.572 550.416 83.484
337.601 550.336 84.226
337.63 550.245 84.9671
337.657 550.145 85.7071
337.683 550.034 86.4459
337.708 549.914 87.1833
337.731 549.784 87.9192
337.753 549.644 88.6534
337.774 549.494 89.3857
337.794 549.334 90.116
337.812 549.165 90.8442
337.829 548.985 91.57
337.845 548.796 92.2934
337.859 548.597 93.0142
337.872 548.389 93.7323
337.884 548.17 94.4476
337.895 547.942 95.1599
337.904 547.705 95.8691
337.912 547.458 96.575
337.919 547.201 97.2776
337.924 546.935 97.9766
337.928 546.66 98.672
337.931 546.375 99.3637
337.932 546.081 100.051
337.932 545.777 100.735
337.931 545.465 101.415
337.929 545.143 102.09
337.925 544.812 102.761
337.92 544.472 103.427
337.913 544.123 104.089
337.905 543.766 104.746
337.896 543.4 105.398
337.886 543.024 106.045
337.874 542.641 106.686
337.862 542.249 107.323
337.847 541.848 107.954
337.832 541.439 108.579
337.815 541.021 109.199
337.797 540.595 109.813
337.778 540.162 110.421
337.757 539.72 111.023
337.735 539.27 111.62
337.712 538.812 112.21
337.688 538.347 112.793
337.662 537.874 113.371
337.635 537.394 113.942
337.607 536.906 114.506
337.578 536.41 115.064
337.547 535.908 115.615
337.516 535.398 116.159
337.483 534.881 116.696
337.449 534.357 117.226
337.413 533.827 117.749
337.377 533.29 118.265
337.339 532.746 118.773
337.3 532.195 119.275
337.26 531.639 119.768
337.219 531.076 120.255
337.177 530.506 120.734
337.134 529.931 121.205
337.089 529.35 121.668
337.044 528.763 122.124
336.997 528.17 122.572
336.949 527.572 123.012
336.901 526.968 123.444
336.851 526.359 123.868
336.8 525.744 124.284
336.748 525.125 124.692
336.695 524.5 125.092
336.641 523.87 125.484
336.586 523.236 125.868
336.53 522.597 126.243
336.473 521.954 126.61
336.415 521.306 126.968
336.356 520.654 127.318
336.297 519.997 127.66
336.236 519.337 127.993
336.174 518.672 128.317
336.112 518.004 128.633
336.048 517.332 128.941
335.984 516.656 129.24
335.919 515.977 129.53
335.853 515.294 129.812
335.786 514.608 130.084
335.718 513.919 130.349
335.649 513.227 130.604
335.58 512.532 130.851
335.51 511.834 131.089
335.439 511.133 131.318
335.367 510.43 131.539
335.294 509.724 131.751
335.221 509.016 131.953
335.147 508.305 132.147
335.072 507.593 132.333
334.997 506.878 132.509
334.921 506.162 132.677
334.844 505.443 132.835
334.767 504.724 132.985
334.689 504.002 133.126
334.61 503.28 133.258
334.531 502.556 133.382
334.451 501.831 133.496
334.37 501.105 133.601
337.225 550.291 81.2468
337.258 550.241 81.986
337.29 550.18 82.7248
337.321 550.11 83.463
337.35 550.03 84.2005
337.379 549.94 84.9371
337.405 549.84 85.6726
337.431 549.73 86.407
337.456 549.611 87.1399
337.479 549.481 87.8714
337.501 549.342 88.6011
337.522 549.193 89.329
337.541 549.034 90.0549
337.559 548.866 90.7786
337.576 548.688 91.5
337.592 548.5 92.219
337.606 548.302 92.9354
337.62 548.094 93.6492
337.631 547.877 94.3601
337.642 547.651 95.068
337.651 547.415 95.7729
337.659 547.169 96.4745
337.666 546.914 97.1728
337.671 546.65 97.8676
337.675 546.376 98.5587
337.678 546.093 99.2462
337.679 545.801 99.9297
337.679 545.499 100.609
337.678 545.188 101.285
337.675 544.869 101.956
337.672 544.54 102.623
337.667 544.202 103.285
337.66 543.855 103.943
337.652 543.5 104.595
337.643 543.136 105.243
337.633 542.763 105.886
337.622 542.382 106.524
337.609 541.992 107.157
337.595 541.593 107.784
337.579 541.187 108.405
337.563 540.772 109.022
337.545 540.349 109.632
337.525 539.918 110.236
337.505 539.478 110.835
337.483 539.031 111.428
337.46 538.577 112.014
337.436 538.114 112.594
337.411 537.644 113.168
337.384 537.166 113.736
337.356 536.681 114.297
337.327 536.189 114.851
337.297 535.689 115.399
337.265 535.183 115.939
337.232 534.669 116.473
337.198 534.148 117
337.163 533.621 117.52
337.127 533.087 118.033
337.09 532.546 118.538
337.051 531.999 119.037
337.011 531.446 119.528
336.97 530.886 120.011
336.928 530.32 120.487
336.885 529.748 120.955
336.841 529.171 121.416
336.796 528.587 121.869
336.75 527.998 122.315
336.702 527.403 122.752
336.654 526.803 123.182
336.604 526.197 123.603
336.553 525.586 124.017
336.502 524.97 124.422
336.449 524.349 124.82
336.396 523.723 125.209
336.341 523.093 125.591
336.285 522.457 125.964
336.229 521.818 126.328
336.171 521.173 126.685
336.113 520.525 127.033
336.053 519.872 127.372
335.993 519.216 127.704
335.931 518.555 128.026
335.869 517.891 128.341
335.806 517.222 128.646
335.742 516.551 128.943
335.677 515.875 129.232
335.612 515.196 129.512
335.545 514.514 129.783
335.478 513.829 130.046
335.41 513.141 130.3
335.341 512.45 130.546
335.271 511.756 130.782
335.2 511.059 131.01
335.129 510.359 131.23
335.057 509.657 131.44
334.984 508.953 131.642
334.91 508.247 131.835
334.836 507.538 132.019
334.761 506.827 132.194
334.685 506.115 132.361
334.609 505.401 132.519
334.532 504.685 132.668
334.454 503.968 132.808
334.376 503.249 132.939
334.297 502.529 133.062
334.218 501.808 133.176
334.138 501.086 133.281
336.98 549.98 81.2387
337.013 549.93 81.9735
337.045 549.87 82.7077
337.075 549.8 83.4414
337.104 549.72 84.1744
337.132 549.631 84.9065
337.159 549.532 85.6375
337.185 549.423 86.3674
337.209 549.304 87.0958
337.232 549.175 87.8227
337.254 549.037 88.548
337.275 548.889 89.2714
337.294 548.731 89.9928
337.312 548.564 90.7121
337.329 548.386 91.429
337.345 548.2 92.1436
337.359 548.003 92.8556
337.372 547.797 93.5649
337.384 547.581 94.2714
337.394 547.356 94.975
337.403 547.122 95.6755
337.411 546.878 96.3727
337.418 546.624 97.0667
337.423 546.361 97.7572
337.427 546.089 98.4441
337.43 545.808 99.1273
337.431 545.517 99.8066
337.431 545.218 100.482
337.43 544.909 101.153
337.428 544.591 101.82
337.424 544.264 102.483
337.419 543.929 103.141
337.412 543.584 103.795
337.405 543.231 104.443
337.396 542.869 105.087
337.386 542.499 105.726
337.374 542.12 106.36
337.361 541.732 106.989
337.347 541.336 107.612
337.332 540.932 108.23
337.315 540.52 108.842
337.298 540.099 109.449
337.278 539.671 110.05
337.258 539.234 110.645
337.237 538.79 111.234
337.214 538.338 111.816
337.19 537.878 112.393
337.164 537.411 112.963
337.138 536.936 113.527
337.11 536.454 114.085
337.081 535.965 114.636
337.051 535.468 115.18
337.02 534.965 115.718
336.987 534.454 116.248
336.953 533.937 116.772
336.918 533.412 117.289
336.882 532.882 117.798
336.845 532.344 118.301
336.807 531.8 118.796
336.767 531.25 119.284
336.727 530.694 119.765
336.685 530.132 120.238
336.642 529.563 120.704
336.598 528.989 121.162
336.553 528.409 121.612
336.507 527.823 122.054
336.46 527.232 122.489
336.412 526.635 122.916
336.363 526.033 123.335
336.312 525.426 123.747
336.261 524.813 124.15
336.209 524.196 124.545
336.155 523.574 124.932
336.101 522.947 125.311
336.046 522.315 125.682
335.989 521.68 126.045
335.932 521.039 126.399
335.874 520.394 126.745
335.815 519.746 127.083
335.755 519.093 127.412
335.694 518.436 127.733
335.632 517.775 128.045
335.569 517.111 128.349
335.506 516.443 128.644
335.441 515.772 128.931
335.376 515.097 129.21
335.31 514.419 129.48
335.243 513.737 129.741
335.175 513.053 129.993
335.106 512.366 130.238
335.037 511.676 130.473
334.967 510.983 130.7
334.896 510.287 130.918
334.824 509.59 131.127
334.752 508.889 131.327
334.679 508.187 131.519
334.605 507.482 131.702
334.53 506.776 131.877
334.455 506.067 132.042
334.379 505.357 132.199
334.302 504.645 132.348
334.225 503.932 132.487
334.147 503.217 132.618
334.069 502.501 132.74
333.99 501.784 132.853
333.91 501.066 132.957
336.741 549.666 81.2303
336.773 549.616 81.9604
336.805 549.556 82.6902
336.835 549.487 83.4193
336.864 549.408 84.1478
336.892 549.319 84.8753
336.918 549.22 85.6018
336.944 549.112 86.327
336.968 548.994 87.051
336.991 548.866 87.7734
337.013 548.729 88.4941
337.033 548.582 89.213
337.053 548.425 89.9299
337.071 548.258 90.6446
337.087 548.082 91.3571
337.103 547.896 92.0672
337.117 547.701 92.7747
337.13 547.496 93.4796
337.141 547.282 94.1817
337.152 547.058 94.8808
337.161 546.825 95.5769
337.169 546.583 96.2698
337.175 546.331 96.9594
337.181 546.07 97.6456
337.184 545.799 98.3282
337.187 545.52 99.0071
337.189 545.231 99.6821
337.189 544.933 100.353
337.187 544.626 101.02
337.185 544.311 101.683
337.181 543.986 102.342
337.176 543.652 102.996
337.17 543.31 103.645
337.162 542.959 104.29
337.153 542.599 104.93
337.143 542.231 105.565
337.132 541.855 106.195
337.119 541.47 106.819
337.105 541.076 107.439
337.09 540.674 108.053
337.074 540.265 108.661
337.056 539.847 109.264
337.037 539.421 109.861
337.017 538.987 110.452
336.995 538.546 111.038
336.972 538.096 111.617
336.949 537.64 112.19
336.923 537.175 112.757
336.897 536.703 113.317
336.87 536.224 113.871
336.841 535.738 114.419
336.811 535.245 114.96
336.78 534.744 115.494
336.747 534.237 116.021
336.714 533.722 116.542
336.679 533.201 117.055
336.643 532.674 117.562
336.606 532.14 118.061
336.568 531.599 118.554
336.529 531.053 119.039
336.489 530.5 119.516
336.447 529.941 119.986
336.405 529.376 120.449
336.361 528.805 120.904
336.316 528.228 121.352
336.27 527.646 121.792
336.224 527.058 122.224
336.176 526.465 122.649
336.127 525.867 123.065
336.077 525.263 123.474
336.026 524.655 123.875
335.974 524.041 124.268
335.921 523.423 124.652
335.867 522.799 125.029
335.812 522.172 125.398
335.756 521.539 125.758
335.699 520.903 126.11
335.641 520.262 126.454
335.582 519.617 126.79
335.523 518.968 127.117
335.462 518.315 127.436
335.401 517.658 127.747
335.338 516.998 128.049
335.275 516.334 128.343
335.211 515.666 128.628
335.146 514.996 128.905
335.08 514.321 129.173
335.014 513.644 129.433
334.946 512.964 129.684
334.878 512.281 129.926
334.809 511.594 130.16
334.739 510.906 130.386
334.669 510.214 130.603
334.597 509.52 130.811
334.525 508.824 131.01
334.453 508.125 131.201
334.379 507.425 131.383
334.305 506.722 131.556
334.23 506.018 131.721
334.155 505.312 131.877
334.078 504.604 132.024
334.002 503.895 132.163
333.924 503.184 132.293
333.846 502.472 132.414
333.768 501.759 132.527
333.689 501.046 132.63
336.506 549.349 81.2214
336.539 549.299 81.9469
336.57 549.24 82.6721
336.6 549.171 83.3967
336.629 549.092 84.1205
336.657 549.004 84.8435
336.683 548.906 85.5654
336.708 548.798 86.2861
336.732 548.681 87.0054
336.755 548.554 87.7232
336.777 548.417 88.4394
336.797 548.271 89.1538
336.816 548.115 89.8661
336.834 547.95 90.5763
336.851 547.775 91.2843
336.866 547.59 91.9899
336.88 547.396 92.6929
336.893 547.193 93.3933
336.905 546.98 94.0909
336.915 546.758 94.7856
336.924 546.526 95.4773
336.932 546.285 96.1658
336.938 546.035 96.851
336.943 545.775 97.5328
336.947 545.507 98.211
336.95 545.229 98.8856
336.951 544.942 99.5564
336.952 544.646 100.223
336.95 544.341 100.886
336.948 544.027 101.545
336.944 543.705 102.199
336.939 543.373 102.849
336.933 543.033 103.494
336.925 542.684 104.135
336.917 542.327 104.771
336.906 541.961 105.402
336.895 541.587 106.028
336.883 541.204 106.648
336.869 540.813 107.264
336.854 540.414 107.874
336.837 540.007 108.478
336.82 539.592 109.077
336.801 539.169 109.671
336.781 538.738 110.258
336.759 538.299 110.84
336.737 537.852 111.415
336.713 537.398 111.985
336.688 536.937 112.548
336.662 536.468 113.105
336.634 535.992 113.656
336.606 535.509 114.2
336.576 535.018 114.737
336.545 534.521 115.268
336.513 534.017 115.792
336.48 533.506 116.31
336.445 532.988 116.82
336.41 532.464 117.323
336.373 531.933 117.82
336.335 531.396 118.309
336.296 530.853 118.791
336.256 530.303 119.265
336.215 529.747 119.733
336.172 529.186 120.193
336.129 528.619 120.645
336.085 528.046 121.09
336.039 527.467 121.527
335.992 526.883 121.957
335.945 526.293 122.379
335.896 525.699 122.793
335.846 525.099 123.199
335.796 524.494 123.597
335.744 523.884 123.988
335.691 523.269 124.37
335.638 522.65 124.745
335.583 522.026 125.111
335.527 521.398 125.469
335.471 520.765 125.819
335.413 520.128 126.161
335.355 519.487 126.495
335.296 518.842 126.82
335.235 518.193 127.137
335.174 517.54 127.446
335.112 516.883 127.746
335.049 516.223 128.038
334.986 515.56 128.322
334.921 514.893 128.597
334.856 514.223 128.864
334.79 513.549 129.122
334.723 512.873 129.372
334.655 512.194 129.613
334.586 511.512 129.845
334.517 510.827 130.069
334.447 510.139 130.285
334.376 509.45 130.492
334.304 508.757 130.69
334.232 508.063 130.88
334.159 507.366 131.061
334.085 506.668 131.233
334.011 505.968 131.397
333.936 505.266 131.552
333.86 504.562 131.698
333.784 503.857 131.836
333.707 503.15 131.965
333.629 502.442 132.086
333.551 501.734 132.198
333.472 501.024 132.301
336.277 549.028 81.212
336.31 548.979 81.933
336.341 548.92 82.6535
336.371 548.851 83.3735
336.399 548.773 84.0927
336.427 548.685 84.811
336.453 548.588 85.5283
336.478 548.481 86.2444
336.502 548.364 86.9592
336.525 548.238 87.6724
336.546 548.103 88.384
336.566 547.957 89.0937
336.585 547.803 89.8015
336.603 547.638 90.5072
336.62 547.464 91.2106
336.635 547.281 91.9116
336.649 547.088 92.6102
336.662 546.886 93.306
336.673 546.675 93.9992
336.683 546.454 94.6894
336.692 546.224 95.3766
336.7 545.984 96.0607
336.707 545.736 96.7415
336.712 545.478 97.4189
336.716 545.211 98.0927
336.718 544.935 98.7629
336.72 544.65 99.4294
336.72 544.356 100.092
336.719 544.053 100.75
336.716 543.741 101.405
336.713 543.42 102.055
336.708 543.091 102.701
336.701 542.753 103.342
336.694 542.407 103.978
336.685 542.052 104.61
336.675 541.688 105.237
336.664 541.316 105.859
336.651 540.936 106.476
336.637 540.548 107.087
336.622 540.151 107.693
336.606 539.747 108.294
336.589 539.334 108.889
336.57 538.914 109.479
336.55 538.485 110.062
336.529 538.049 110.64
336.506 537.606 111.212
336.483 537.155 111.778
336.458 536.696 112.338
336.432 536.23 112.891
336.405 535.757 113.438
336.376 535.277 113.979
336.347 534.79 114.513
336.316 534.296 115.04
336.284 533.795 115.561
336.251 533.287 116.075
336.217 532.772 116.582
336.181 532.251 117.083
336.145 531.724 117.576
336.107 531.19 118.062
336.068 530.65 118.541
336.029 530.104 119.013
335.988 529.552 119.477
335.946 528.994 119.934
335.903 528.43 120.384
335.858 527.861 120.826
335.813 527.286 121.26
335.767 526.705 121.687
335.719 526.12 122.106
335.671 525.528 122.518
335.622 524.932 122.922
335.571 524.331 123.318
335.52 523.725 123.706
335.468 523.114 124.086
335.414 522.498 124.458
335.36 521.878 124.822
335.305 521.254 125.178
335.248 520.625 125.526
335.191 519.992 125.866
335.133 519.355 126.197
335.074 518.713 126.521
335.014 518.068 126.836
334.954 517.419 127.143
334.892 516.767 127.441
334.83 516.111 127.731
334.766 515.451 128.013
334.702 514.788 128.287
334.637 514.122 128.552
334.571 513.453 128.809
334.505 512.781 129.057
334.437 512.105 129.296
334.369 511.427 129.528
334.3 510.747 129.75
334.23 510.063 129.965
334.16 509.378 130.17
334.089 508.689 130.367
334.017 507.999 130.556
333.944 507.307 130.736
333.871 506.612 130.907
333.797 505.916 131.07
333.722 505.218 131.224
333.647 504.519 131.37
333.571 503.818 131.507
333.495 503.115 131.635
333.418 502.411 131.755
333.34 501.707 131.866
333.262 501.001 131.969
336.054 548.705 81.2022
336.086 548.656 81.9186
336.117 548.597 82.6345
336.147 548.529 83.3498
336.175 548.452 84.0644
336.202 548.364 84.7781
336.229 548.268 85.4907
336.254 548.161 86.2022
336.277 548.046 86.9123
336.3 547.92 87.6209
336.321 547.785 88.3278
336.341 547.641 89.033
336.36 547.487 89.7362
336.378 547.324 90.4372
336.394 547.151 91.1361
336.409 546.969 91.8325
336.423 546.778 92.5265
336.436 546.577 93.2178
336.447 546.367 93.9064
336.457 546.147 94.5922
336.466 545.919 95.2749
336.474 545.681 95.9545
336.48 545.434 96.6308
336.486 545.178 97.3038
336.49 544.912 97.9733
336.492 544.638 98.6391
336.494 544.355 99.3012
336.494 544.063 99.9594
336.492 543.762 100.614
336.49 543.452 101.264
336.486 543.134 101.91
336.481 542.807 102.551
336.475 542.471 103.188
336.468 542.127 103.82
336.459 541.774 104.448
336.449 541.413 105.071
336.438 541.043 105.689
336.426 540.666 106.301
336.412 540.28 106.909
336.397 539.886 107.511
336.381 539.484 108.108
336.363 539.074 108.699
336.345 538.656 109.285
336.325 538.231 109.865
336.304 537.798 110.439
336.282 537.357 111.007
336.258 536.909 111.57
336.233 536.453 112.126
336.208 535.99 112.676
336.181 535.52 113.219
336.152 535.043 113.756
336.123 534.559 114.287
336.092 534.068 114.811
336.061 533.57 115.328
336.028 533.066 115.839
335.994 532.554 116.343
335.959 532.037 116.84
335.922 531.513 117.33
335.885 530.982 117.813
335.846 530.446 118.289
335.807 529.903 118.758
335.766 529.355 119.219
335.724 528.8 119.673
335.682 528.24 120.12
335.638 527.674 120.559
335.593 527.103 120.991
335.547 526.526 121.415
335.5 525.944 121.832
335.452 525.356 122.241
335.402 524.764 122.642
335.352 524.166 123.036
335.301 523.564 123.421
335.249 522.957 123.799
335.196 522.345 124.169
335.142 521.729 124.531
335.087 521.108 124.885
335.032 520.483 125.23
334.975 519.854 125.568
334.917 519.221 125.898
334.858 518.584 126.219
334.799 517.942 126.532
334.739 517.298 126.837
334.677 516.649 127.134
334.615 515.997 127.422
334.552 515.341 127.702
334.489 514.682 127.974
334.424 514.02 128.238
334.359 513.355 128.493
334.292 512.687 128.74
334.225 512.016 128.978
334.158 511.342 129.208
334.089 510.665 129.429
334.02 509.986 129.642
333.95 509.304 129.846
333.879 508.62 130.042
333.807 507.934 130.23
333.735 507.246 130.409
333.662 506.555 130.579
333.589 505.863 130.741
333.515 505.17 130.894
333.44 504.474 131.039
333.365 503.777 131.175
333.288 503.079 131.303
333.212 502.379 131.422
333.135 501.679 131.532
333.057 500.977 131.634
335.836 548.379 81.192
335.868 548.33 81.9037
335.899 548.272 82.6149
335.928 548.204 83.3256
335.957 548.127 84.0355
335.984 548.041 84.7445
336.01 547.944 85.4525
336.034 547.839 86.1593
336.058 547.724 86.8647
336.08 547.599 87.5687
336.102 547.465 88.271
336.122 547.322 88.9715
336.14 547.169 89.6701
336.158 547.007 90.3665
336.174 546.835 91.0607
336.189 546.655 91.7526
336.203 546.464 92.442
336.216 546.265 93.1288
336.227 546.056 93.8128
336.237 545.838 94.494
336.246 545.611 95.1722
336.254 545.375 95.8473
336.26 545.129 96.5192
336.265 544.875 97.1877
336.269 544.611 97.8528
336.272 544.339 98.5142
336.273 544.058 99.1719
336.273 543.768 99.8258
336.272 543.469 100.476
336.269 543.161 101.121
336.266 542.844 101.763
336.261 542.519 102.4
336.255 542.186 103.033
336.247 541.844 103.661
336.239 541.494 104.285
336.229 541.135 104.903
336.218 540.768 105.517
336.205 540.393 106.126
336.192 540.009 106.73
336.177 539.618 107.328
336.161 539.219 107.921
336.144 538.811 108.508
336.125 538.396 109.09
336.105 537.974 109.666
336.084 537.543 110.236
336.062 537.106 110.801
336.039 536.66 111.359
336.015 536.208 111.912
335.989 535.748 112.458
335.962 535.281 112.998
335.934 534.807 113.532
335.905 534.326 114.059
335.874 533.838 114.58
335.843 533.344 115.094
335.81 532.842 115.601
335.776 532.334 116.102
335.741 531.82 116.596
335.705 531.299 117.083
335.668 530.773 117.562
335.63 530.239 118.035
335.591 529.7 118.501
335.55 529.155 118.96
335.509 528.604 119.411
335.466 528.048 119.855
335.423 527.486 120.291
335.378 526.918 120.72
335.332 526.345 121.142
335.285 525.766 121.556
335.238 525.182 121.962
335.189 524.594 122.361
335.139 524 122.752
335.088 523.401 123.135
335.037 522.798 123.51
334.984 522.19 123.878
334.93 521.578 124.237
334.876 520.961 124.589
334.82 520.34 124.933
334.764 519.715 125.268
334.707 519.085 125.596
334.648 518.452 125.915
334.589 517.815 126.226
334.529 517.174 126.529
334.468 516.53 126.824
334.407 515.881 127.111
334.344 515.23 127.389
334.281 514.575 127.66
334.217 513.917 127.921
334.151 513.256 128.175
334.086 512.592 128.42
334.019 511.925 128.657
333.952 511.255 128.885
333.884 510.582 129.105
333.815 509.907 129.317
333.745 509.23 129.52
333.675 508.55 129.715
333.604 507.868 129.901
333.532 507.184 130.079
333.46 506.498 130.248
333.387 505.81 130.409
333.313 505.12 130.562
333.238 504.429 130.706
333.163 503.736 130.841
333.088 503.042 130.968
333.012 502.346 131.086
332.935 501.65 131.196
332.858 500.953 131.297
335.624 548.05 81.1814
335.656 548.002 81.8884
335.686 547.944 82.5949
335.716 547.877 83.3009
335.744 547.8 84.0061
335.771 547.714 84.7104
335.796 547.619 85.4137
335.821 547.514 86.1158
335.844 547.4 86.8166
335.867 547.276 87.5158
335.888 547.143 88.2135
335.908 547 88.9093
335.926 546.849 89.6032
335.944 546.688 90.295
335.96 546.517 90.9846
335.975 546.337 91.6719
335.988 546.148 92.3567
336.001 545.95 93.0388
336.012 545.743 93.7183
336.022 545.526 94.395
336.031 545.301 95.0686
336.039 545.066 95.7392
336.045 544.822 96.4066
336.05 544.57 97.0707
336.054 544.308 97.7312
336.057 544.037 98.3882
336.058 543.758 99.0415
336.058 543.47 99.691
336.057 543.173 100.337
336.054 542.867 100.978
336.051 542.553 101.615
336.046 542.23 102.248
336.04 541.899 102.877
336.032 541.559 103.501
336.024 541.211 104.12
336.014 540.855 104.735
336.003 540.49 105.344
335.991 540.117 105.949
335.977 539.737 106.549
335.963 539.348 107.143
335.947 538.951 107.732
335.929 538.547 108.315
335.911 538.134 108.893
335.891 537.715 109.466
335.871 537.287 110.032
335.849 536.852 110.593
335.826 536.41 111.148
335.801 535.96 111.697
335.776 535.504 112.239
335.749 535.04 112.776
335.721 534.569 113.306
335.692 534.091 113.83
335.662 533.606 114.347
335.631 533.115 114.858
335.598 532.617 115.362
335.565 532.112 115.859
335.53 531.602 116.35
335.494 531.084 116.833
335.457 530.561 117.31
335.419 530.031 117.78
335.38 529.496 118.243
335.34 528.954 118.698
335.299 528.407 119.146
335.256 527.854 119.588
335.213 527.295 120.021
335.169 526.731 120.447
335.123 526.161 120.866
335.077 525.587 121.278
335.029 525.007 121.681
334.981 524.422 122.077
334.932 523.832 122.466
334.881 523.237 122.847
334.83 522.638 123.22
334.777 522.034 123.585
334.724 521.425 123.942
334.67 520.812 124.291
334.615 520.195 124.633
334.559 519.574 124.966
334.502 518.948 125.292
334.444 518.319 125.609
334.385 517.686 125.918
334.325 517.049 126.22
334.265 516.409 126.513
334.204 515.765 126.798
334.141 515.117 127.074
334.078 514.466 127.343
334.015 513.812 127.603
333.95 513.155 127.855
333.885 512.495 128.099
333.819 511.832 128.334
333.752 511.167 128.561
333.684 510.498 128.78
333.615 509.827 128.99
333.546 509.154 129.192
333.476 508.478 129.385
333.406 507.8 129.571
333.334 507.12 129.747
333.262 506.438 129.916
333.19 505.755 130.076
333.117 505.069 130.227
333.043 504.382 130.37
332.968 503.694 130.505
332.893 503.004 130.631
332.817 502.312 130.748
332.741 501.62 130.858
332.664 500.927 130.958
335.418 547.719 81.1704
335.449 547.671 81.8726
335.479 547.614 82.5745
335.508 547.547 83.2757
335.536 547.471 83.9762
335.563 547.385 84.6758
335.589 547.291 85.3744
335.613 547.186 86.0718
335.637 547.073 86.7678
335.659 546.95 87.4624
335.68 546.818 88.1553
335.699 546.676 88.8465
335.718 546.526 89.5357
335.735 546.366 90.2228
335.751 546.196 90.9078
335.766 546.018 91.5904
335.78 545.83 92.2705
335.792 545.633 92.9481
335.803 545.427 93.623
335.813 545.212 94.2951
335.822 544.988 94.9642
335.829 544.755 95.6302
335.836 544.513 96.2931
335.841 544.262 96.9526
335.845 544.002 97.6087
335.847 543.733 98.2613
335.848 543.456 98.9102
335.849 543.17 99.5553
335.847 542.875 100.196
335.845 542.571 100.834
335.841 542.259 101.467
335.837 541.938 102.095
335.831 541.609 102.72
335.823 541.272 103.339
335.815 540.926 103.954
335.805 540.572 104.565
335.794 540.21 105.17
335.782 539.84 105.771
335.768 539.462 106.367
335.754 539.076 106.957
335.738 538.682 107.542
335.721 538.28 108.121
335.703 537.87 108.695
335.683 537.453 109.264
335.663 537.029 109.827
335.641 536.597 110.384
335.618 536.157 110.935
335.594 535.711 111.48
335.568 535.257 112.019
335.542 534.796 112.552
335.514 534.329 113.079
335.485 533.854 113.599
335.455 533.373 114.113
335.424 532.884 114.62
335.392 532.39 115.121
335.359 531.889 115.615
335.324 531.381 116.102
335.289 530.867 116.582
335.252 530.347 117.056
335.214 529.821 117.523
335.175 529.289 117.982
335.135 528.751 118.435
335.094 528.207 118.88
335.052 527.658 119.319
335.009 527.103 119.749
334.965 526.542 120.173
334.92 525.977 120.589
334.874 525.406 120.998
334.827 524.829 121.399
334.779 524.248 121.792
334.73 523.662 122.178
334.68 523.071 122.556
334.628 522.476 122.927
334.576 521.876 123.29
334.524 521.271 123.645
334.47 520.662 123.992
334.415 520.049 124.331
334.359 519.431 124.663
334.303 518.81 124.986
334.245 518.185 125.301
334.187 517.556 125.609
334.127 516.923 125.908
334.067 516.286 126.199
334.006 515.646 126.482
333.945 515.003 126.757
333.882 514.356 127.024
333.819 513.706 127.283
333.754 513.054 127.533
333.689 512.398 127.775
333.624 511.739 128.009
333.557 511.077 128.235
333.49 510.413 128.452
333.422 509.746 128.661
333.353 509.077 128.862
333.284 508.405 129.054
333.213 507.732 129.238
333.143 507.056 129.414
333.071 506.378 129.581
332.999 505.699 129.74
332.926 505.017 129.89
332.853 504.334 130.032
332.778 503.65 130.166
332.704 502.964 130.292
332.628 502.278 130.409
332.553 501.589 130.517
332.476 500.9 130.617
335.217 547.386 81.1589
335.248 547.338 81.8565
335.278 547.281 82.5536
335.307 547.215 83.25
335.335 547.139 83.9458
335.361 547.054 84.6407
335.387 546.96 85.3345
335.411 546.857 86.0272
335.434 546.744 86.7185
335.456 546.622 87.4083
335.477 546.491 88.0965
335.497 546.35 88.783
335.515 546.201 89.4675
335.532 546.042 90.15
335.548 545.873 90.8302
335.563 545.696 91.5082
335.576 545.51 92.1837
335.589 545.314 92.8566
335.6 545.11 93.5269
335.61 544.896 94.1943
335.618 544.674 94.8589
335.626 544.442 95.5204
335.632 544.202 96.1787
335.637 543.952 96.8337
335.641 543.694 97.4853
335.643 543.427 98.1334
335.645 543.152 98.7779
335.645 542.867 99.4185
335.644 542.574 100.055
335.641 542.273 100.688
335.638 541.963 101.317
335.633 541.644 101.941
335.627 541.318 102.561
335.62 540.983 103.177
335.611 540.639 103.788
335.602 540.288 104.394
335.591 539.928 104.995
335.579 539.56 105.592
335.565 539.185 106.183
335.551 538.801 106.769
335.535 538.41 107.35
335.518 538.011 107.926
335.5 537.604 108.496
335.481 537.19 109.061
335.46 536.768 109.62
335.438 536.339 110.173
335.416 535.903 110.72
335.392 535.459 111.262
335.366 535.009 111.797
335.34 534.551 112.327
335.313 534.086 112.85
335.284 533.615 113.366
335.254 533.137 113.877
335.223 532.652 114.381
335.191 532.161 114.878
335.158 531.663 115.369
335.124 531.159 115.853
335.089 530.648 116.33
335.052 530.132 116.801
335.015 529.609 117.264
334.976 529.08 117.721
334.937 528.546 118.17
334.896 528.006 118.613
334.854 527.46 119.048
334.811 526.909 119.476
334.768 526.352 119.897
334.723 525.79 120.31
334.677 525.223 120.716
334.63 524.65 121.114
334.582 524.073 121.505
334.533 523.491 121.889
334.484 522.904 122.265
334.433 522.312 122.633
334.381 521.716 122.993
334.329 521.115 123.346
334.275 520.51 123.691
334.221 519.901 124.028
334.165 519.288 124.357
334.109 518.67 124.678
334.052 518.049 124.992
333.994 517.424 125.297
333.935 516.795 125.594
333.875 516.163 125.884
333.815 515.527 126.165
333.753 514.888 126.438
333.691 514.245 126.703
333.628 513.599 126.96
333.564 512.95 127.209
333.5 512.299 127.45
333.435 511.644 127.682
333.368 510.987 127.906
333.302 510.327 128.122
333.234 509.664 128.33
333.166 508.999 128.529
333.097 508.332 128.721
333.027 507.662 128.903
332.956 506.991 129.078
332.885 506.317 129.244
332.814 505.642 129.402
332.741 504.965 129.552
332.668 504.286 129.693
332.595 503.606 129.826
332.52 502.924 129.951
332.446 502.242 130.067
332.37 501.558 130.175
332.294 500.873 130.274
335.022 547.05 81.1471
335.053 547.003 81.8399
335.083 546.946 82.5322
335.111 546.88 83.2239
335.139 546.805 83.9149
335.165 546.721 84.605
335.191 546.628 85.2941
335.215 546.525 85.982
335.238 546.413 86.6686
335.26 546.292 87.3537
335.28 546.161 88.0372
335.3 546.022 88.7189
335.318 545.873 89.3987
335.335 545.715 90.0764
335.351 545.548 90.752
335.365 545.372 91.4253
335.379 545.187 92.0961
335.391 544.993 92.7644
335.402 544.79 93.43
335.412 544.578 94.0929
335.421 544.357 94.7528
335.428 544.127 95.4097
335.434 543.888 96.0635
335.439 543.641 96.714
335.443 543.384 97.3611
335.446 543.119 98.0047
335.447 542.845 98.6446
335.447 542.563 99.2809
335.446 542.272 99.9132
335.443 541.973 100.542
335.44 541.665 101.166
335.435 541.349 101.786
335.429 541.024 102.402
335.422 540.691 103.013
335.414 540.35 103.62
335.404 540.001 104.222
335.393 539.644 104.819
335.381 539.279 105.411
335.368 538.906 105.999
335.353 538.525 106.581
335.338 538.136 107.158
335.321 537.74 107.73
335.303 537.336 108.296
335.284 536.925 108.857
335.263 536.506 109.412
335.242 536.08 109.961
335.219 535.647 110.505
335.195 535.206 111.043
335.17 534.759 111.574
335.144 534.304 112.1
335.117 533.843 112.62
335.088 533.374 113.133
335.059 532.899 113.64
335.028 532.418 114.14
334.996 531.93 114.634
334.964 531.435 115.122
334.93 530.935 115.602
334.894 530.428 116.076
334.858 529.915 116.544
334.821 529.395 117.004
334.783 528.87 117.458
334.743 528.34 117.904
334.703 527.803 118.344
334.661 527.261 118.776
334.619 526.713 119.201
334.575 526.16 119.619
334.531 525.602 120.03
334.485 525.039 120.433
334.439 524.47 120.829
334.391 523.896 121.217
334.343 523.318 121.598
334.293 522.735 121.971
334.243 522.147 122.337
334.192 521.555 122.695
334.14 520.958 123.046
334.086 520.357 123.388
334.032 519.752 123.723
333.977 519.142 124.05
333.921 518.529 124.369
333.865 517.912 124.681
333.807 517.291 124.984
333.749 516.666 125.279
333.689 516.038 125.567
333.629 515.406 125.846
333.568 514.771 126.118
333.506 514.132 126.381
333.444 513.491 126.636
333.38 512.846 126.884
333.316 512.199 127.123
333.251 511.548 127.354
333.185 510.895 127.576
333.119 510.239 127.791
333.052 509.581 127.997
332.984 508.92 128.196
332.915 508.257 128.385
332.846 507.591 128.567
332.776 506.924 128.741
332.705 506.255 128.906
332.634 505.584 129.063
332.562 504.911 129.211
332.49 504.236 129.352
332.417 503.56 129.484
332.343 502.883 129.608
332.268 502.205 129.723
332.194 501.525 129.831
332.118 500.845 129.929
334.833 546.713 81.1349
334.863 546.666 81.8229
334.893 546.61 82.5105
334.922 546.544 83.1974
334.949 546.47 83.8836
334.975 546.386 84.5689
335 546.293 85.2532
335.024 546.191 85.9364
335.047 546.08 86.6182
335.069 545.959 87.2985
335.089 545.83 87.9772
335.108 545.691 88.6542
335.127 545.544 89.3293
335.143 545.387 90.0023
335.159 545.221 90.6731
335.174 545.046 91.3417
335.187 544.863 92.0079
335.199 544.67 92.6715
335.21 544.468 93.3325
335.22 544.257 93.9907
335.229 544.038 94.646
335.236 543.81 95.2983
335.242 543.573 95.9475
335.247 543.327 96.5934
335.251 543.072 97.236
335.253 542.809 97.8751
335.255 542.537 98.5106
335.255 542.257 99.1423
335.254 541.968 99.7703
335.251 541.671 100.394
335.248 541.365 101.014
335.243 541.051 101.63
335.237 540.729 102.241
335.23 540.398 102.848
335.222 540.06 103.451
335.212 539.713 104.049
335.201 539.358 104.642
335.189 538.996 105.23
335.176 538.625 105.813
335.162 538.247 106.391
335.146 537.861 106.964
335.13 537.468 107.532
335.112 537.067 108.094
335.093 536.658 108.651
335.072 536.242 109.203
335.051 535.819 109.748
335.029 535.389 110.288
335.005 534.951 110.822
334.98 534.507 111.35
334.954 534.055 111.872
334.927 533.597 112.388
334.899 533.132 112.898
334.869 532.66 113.401
334.839 532.182 113.898
334.807 531.697 114.389
334.775 531.206 114.873
334.741 530.709 115.351
334.706 530.205 115.821
334.67 529.696 116.286
334.633 529.18 116.743
334.595 528.659 117.193
334.556 528.132 117.637
334.516 527.599 118.073
334.475 527.06 118.503
334.432 526.516 118.925
334.389 525.967 119.34
334.345 525.412 119.748
334.3 524.853 120.148
334.254 524.288 120.542
334.206 523.718 120.927
334.158 523.144 121.306
334.109 522.565 121.677
334.059 521.981 122.04
334.008 521.392 122.396
333.956 520.799 122.744
333.903 520.202 123.084
333.85 519.601 123.417
333.795 518.996 123.742
333.739 518.386 124.059
333.683 517.773 124.368
333.626 517.156 124.669
333.568 516.536 124.963
333.509 515.912 125.248
333.449 515.284 125.526
333.388 514.653 125.796
333.327 514.019 126.057
333.265 513.381 126.311
333.202 512.741 126.557
333.138 512.097 126.794
333.074 511.451 127.024
333.008 510.802 127.245
332.942 510.15 127.458
332.876 509.496 127.663
332.808 508.84 127.86
332.74 508.181 128.049
332.671 507.52 128.229
332.602 506.856 128.402
332.531 506.191 128.566
332.461 505.525 128.722
332.389 504.856 128.869
332.317 504.186 129.009
332.244 503.514 129.14
332.171 502.841 129.263
332.097 502.167 129.378
332.023 501.492 129.485
331.948 500.815 129.583
334.649 546.373 81.1223
334.68 546.327 81.8055
334.709 546.271 82.4883
334.737 546.206 83.1704
334.765 546.132 83.8519
334.791 546.049 84.5324
334.816 545.956 85.2119
334.839 545.855 85.8902
334.862 545.745 86.5673
334.883 545.625 87.2428
334.904 545.497 87.9168
334.923 545.359 88.589
334.941 545.213 89.2593
334.958 545.057 89.9276
334.973 544.892 90.5937
334.988 544.719 91.2575
335.001 544.536 91.919
335.013 544.345 92.5779
335.024 544.144 93.2342
335.034 543.935 93.8878
335.042 543.717 94.5385
335.05 543.491 95.1862
335.056 543.255 95.8308
335.061 543.011 96.4721
335.064 542.758 97.1102
335.067 542.497 97.7447
335.068 542.227 98.3757
335.068 541.949 99.003
335.067 541.662 99.6265
335.065 541.367 100.246
335.061 541.063 100.862
335.057 540.751 101.473
335.051 540.431 102.08
335.044 540.103 102.683
335.035 539.767 103.281
335.026 539.423 103.875
335.015 539.071 104.464
335.003 538.711 105.048
334.99 538.343 105.627
334.976 537.967 106.201
334.961 537.584 106.77
334.944 537.193 107.334
334.926 536.795 107.892
334.907 536.389 108.445
334.887 535.976 108.992
334.866 535.556 109.534
334.844 535.129 110.07
334.82 534.695 110.601
334.796 534.253 111.125
334.77 533.805 111.643
334.743 533.35 112.156
334.715 532.888 112.662
334.686 532.42 113.162
334.655 531.945 113.655
334.624 531.463 114.143
334.592 530.976 114.623
334.558 530.482 115.098
334.523 529.982 115.565
334.488 529.476 116.026
334.451 528.964 116.48
334.413 528.446 116.928
334.374 527.922 117.368
334.334 527.393 117.802
334.294 526.858 118.228
334.252 526.318 118.647
334.209 525.772 119.06
334.165 525.222 119.465
334.12 524.666 119.863
334.074 524.105 120.253
334.027 523.539 120.636
333.979 522.968 121.012
333.931 522.393 121.38
333.881 521.813 121.741
333.83 521.228 122.095
333.779 520.64 122.44
333.726 520.047 122.779
333.673 519.449 123.109
333.618 518.848 123.432
333.563 518.243 123.747
333.507 517.634 124.054
333.45 517.021 124.353
333.393 516.404 124.645
333.334 515.784 124.928
333.275 515.161 125.204
333.215 514.534 125.472
333.154 513.904 125.732
333.092 513.27 125.984
333.029 512.634 126.228
332.966 511.995 126.464
332.902 511.353 126.692
332.837 510.708 126.912
332.771 510.061 127.124
332.705 509.411 127.328
332.638 508.758 127.523
332.57 508.104 127.711
332.502 507.447 127.89
332.433 506.788 128.061
332.363 506.127 128.224
332.293 505.465 128.379
332.222 504.8 128.526
332.15 504.134 128.665
332.078 503.467 128.795
332.005 502.798 128.917
331.932 502.128 129.031
331.858 501.457 129.137
331.783 500.785 129.235
334.471 546.032 81.1094
334.502 545.986 81.7878
334.531 545.93 82.4657
334.559 545.866 83.1431
334.586 545.792 83.8197
334.612 545.71 84.4954
334.637 545.618 85.1701
334.66 545.518 85.8436
334.683 545.408 86.5159
334.704 545.289 87.1866
334.724 545.162 87.8558
334.743 545.025 88.5232
334.761 544.88 89.1888
334.778 544.725 89.8523
334.793 544.562 90.5137
334.808 544.389 91.1728
334.821 544.208 91.8295
334.833 544.018 92.4838
334.844 543.819 93.1354
334.853 543.611 93.7843
334.862 543.395 94.4303
334.869 543.17 95.0734
334.875 542.936 95.7134
334.88 542.694 96.3502
334.884 542.443 96.9836
334.886 542.184 97.6137
334.887 541.916 98.2402
334.888 541.639 98.863
334.886 541.354 99.482
334.884 541.061 100.097
334.881 540.76 100.708
334.876 540.45 101.315
334.87 540.133 101.918
334.863 539.807 102.517
334.855 539.473 103.111
334.845 539.131 103.7
334.835 538.782 104.285
334.823 538.424 104.865
334.81 538.059 105.44
334.796 537.686 106.01
334.781 537.306 106.575
334.764 536.918 107.134
334.747 536.522 107.689
334.728 536.119 108.238
334.708 535.709 108.781
334.687 535.292 109.319
334.665 534.868 109.852
334.641 534.436 110.378
334.617 533.998 110.899
334.591 533.553 111.414
334.564 533.101 111.922
334.537 532.643 112.425
334.508 532.178 112.921
334.478 531.706 113.411
334.446 531.228 113.895
334.414 530.744 114.373
334.381 530.253 114.844
334.347 529.757 115.308
334.311 529.254 115.766
334.275 528.746 116.217
334.237 528.231 116.661
334.199 527.711 117.098
334.159 527.186 117.529
334.118 526.655 117.952
334.077 526.118 118.369
334.034 525.576 118.778
333.99 525.029 119.181
333.946 524.477 119.576
333.9 523.92 119.963
333.854 523.358 120.344
333.806 522.791 120.717
333.758 522.22 121.083
333.708 521.644 121.442
333.658 521.063 121.792
333.607 520.479 122.136
333.555 519.89 122.472
333.502 519.296 122.8
333.448 518.699 123.12
333.393 518.098 123.433
333.337 517.493 123.738
333.281 516.884 124.036
333.224 516.272 124.325
333.165 515.656 124.607
333.106 515.036 124.881
333.047 514.414 125.147
332.986 513.788 125.406
332.925 513.159 125.656
332.863 512.526 125.898
332.8 511.891 126.133
332.736 511.254 126.359
332.672 510.613 126.578
332.606 509.97 126.788
332.541 509.324 126.991
332.474 508.676 127.185
332.407 508.026 127.371
332.339 507.373 127.549
332.27 506.718 127.719
332.201 506.062 127.882
332.131 505.404 128.035
332.06 504.744 128.181
331.989 504.082 128.319
331.917 503.419 128.449
331.845 502.755 128.57
331.772 502.089 128.683
331.699 501.422 128.789
331.624 500.754 128.886
334.3 545.69 81.0961
334.33 545.643 81.7696
334.359 545.588 82.4428
334.387 545.524 83.1153
334.413 545.451 83.7871
334.439 545.369 84.458
334.464 545.278 85.1279
334.487 545.178 85.7966
334.509 545.07 86.464
334.531 544.952 87.13
334.551 544.825 87.7943
334.569 544.69 88.457
334.587 544.545 89.1177
334.604 544.392 89.7765
334.619 544.229 90.4331
334.633 544.058 91.0875
334.646 543.878 91.7395
