309.821 510.63 104.977
309.797 510.633 104.523
309.774 510.636 104.069
309.75 510.638 103.615
309.726 510.641 103.161
309.703 510.644 102.707
309.679 510.647 102.253
309.655 510.65 101.799
309.632 510.652 101.345
309.608 510.655 100.891
309.585 510.658 100.437
309.561 510.661 99.9833
309.537 510.664 99.5293
309.514 510.666 99.0753
309.49 510.669 98.6214
309.466 510.672 98.1674
309.443 510.675 97.7135
309.419 510.678 97.2595
309.396 510.68 96.8055
309.372 510.683 96.3516
309.348 510.686 95.8976
309.325 510.689 95.4437
309.301 510.692 94.9897
309.277 510.694 94.5358
309.254 510.697 94.0818
309.23 510.7 93.6278
309.207 510.703 93.1739
309.183 510.706 92.7199
309.159 510.708 92.266
309.136 510.711 91.812
309.112 510.714 91.3581
309.088 510.717 90.9041
309.065 510.72 90.4501
309.041 510.722 89.9962
309.018 510.725 89.5422
308.994 510.728 89.0883
308.97 510.731 88.6343
308.947 510.734 88.1803
308.923 510.736 87.7264
308.899 510.739 87.2724
308.876 510.742 86.8185
308.852 510.745 86.3645
308.829 510.748 85.9106
308.805 510.75 85.4566
308.781 510.753 85.0026
308.758 510.756 84.5487
308.734 510.759 84.0947
308.71 510.762 83.6408
308.687 510.764 83.1868
308.663 510.767 82.7329
308.64 510.77 82.2789
308.616 510.773 81.8249
308.592 510.776 81.371
308.569 510.778 80.917
308.545 510.781 80.4631
308.521 510.784 80.0091
310.24 510.122 114.056
310.216 510.125 113.602
310.193 510.128 113.148
310.169 510.131 112.694
310.145 510.134 112.24
310.122 510.136 111.786
310.098 510.139 111.332
310.074 510.142 110.878
310.051 510.145 110.424
310.027 510.148 109.97
310.004 510.15 109.516
309.98 510.153 109.062
309.956 510.156 108.608
309.933 510.159 108.155
309.909 510.162 107.701
309.885 510.164 107.247
309.862 510.167 106.793
309.838 510.17 106.339
309.815 510.173 105.885
309.791 510.176 105.431
309.767 510.178 104.977
309.744 510.181 104.523
309.72 510.184 104.069
309.696 510.187 103.615
309.673 510.19 103.161
309.649 510.193 102.707
309.626 510.195 102.253
309.602 510.198 101.799
309.578 510.201 101.345
309.555 510.204 100.891
309.531 510.207 100.437
309.507 510.209 99.9833
309.484 510.212 99.5293
309.46 510.215 99.0753
309.437 510.218 98.6214
309.413 510.221 98.1674
309.389 510.223 97.7135
309.366 510.226 97.2595
309.342 510.229 96.8055
309.318 510.232 96.3516
309.295 510.235 95.8976
309.271 510.237 95.4437
309.248 510.24 94.9897
309.224 510.243 94.5358
309.2 510.246 94.0818
309.177 510.249 93.6278
309.153 510.251 93.1739
309.129 510.254 92.7199
309.106 510.257 92.266
309.082 510.26 91.812
309.059 510.263 91.3581
309.035 510.265 90.9041
309.011 510.268 90.4501
308.988 510.271 89.9962
308.964 510.274 89.5422
308.94 510.277 89.0883
308.917 510.279 88.6343
308.893 510.282 88.1803
308.87 510.285 87.7264
308.846 510.288 87.2724
308.822 510.291 86.8185
308.799 510.293 86.3645
308.775 510.296 85.9106
308.751 510.299 85.4566
308.728 510.302 85.0026
308.704 510.305 84.5487
308.681 510.307 84.0947
308.657 510.31 83.6408
308.633 510.313 83.1868
308.61 510.316 82.7329
308.586 510.319 82.2789
308.562 510.321 81.8249
308.539 510.324 81.371
308.515 510.327 80.917
308.491 510.33 80.4631
308.468 510.333 80.0091
310.21 509.668 114.51
310.186 509.671 114.056
310.163 509.674 113.602
310.139 509.677 113.148
310.115 509.679 112.694
310.092 509.682 112.24
310.068 509.685 111.786
310.045 509.688 111.332
310.021 509.691 110.878
309.997 509.693 110.424
309.974 509.696 109.97
309.95 509.699 109.516
309.926 509.702 109.062
309.903 509.705 108.608
309.879 509.707 108.155
309.856 509.71 107.701
309.832 509.713 107.247
309.808 509.716 106.793
309.785 509.719 106.339
309.761 509.721 105.885
309.737 509.724 105.431
309.714 509.727 104.977
309.69 509.73 104.523
309.666 509.733 104.069
309.643 509.735 103.615
309.619 509.738 103.161
309.596 509.741 102.707
309.572 509.744 102.253
309.548 509.747 101.799
309.525 509.749 101.345
309.501 509.752 100.891
309.477 509.755 100.437
309.454 509.758 99.9833
309.43 509.761 99.5293
309.407 509.763 99.0753
309.383 509.766 98.6214
309.359 509.769 98.1674
309.336 509.772 97.7135
309.312 509.775 97.2595
309.288 509.777 96.8055
309.265 509.78 96.3516
309.241 509.783 95.8976
309.218 509.786 95.4437
309.194 509.789 94.9897
309.17 509.792 94.5358
309.147 509.794 94.0818
309.123 509.797 93.6278
309.099 509.8 93.1739
309.076 509.803 92.7199
309.052 509.806 92.266
309.029 509.808 91.812
309.005 509.811 91.3581
308.981 509.814 90.9041
308.958 509.817 90.4501
308.934 509.82 89.9962
308.91 509.822 89.5422
308.887 509.825 89.0883
308.863 509.828 88.6343
308.84 509.831 88.1803
308.816 509.834 87.7264
308.792 509.836 87.2724
308.769 509.839 86.8185
308.745 509.842 86.3645
308.721 509.845 85.9106
308.698 509.848 85.4566
308.674 509.85 85.0026
308.651 509.853 84.5487
308.627 509.856 84.0947
308.603 509.859 83.6408
308.58 509.862 83.1868
308.556 509.864 82.7329
308.532 509.867 82.2789
308.509 509.87 81.8249
308.485 509.873 81.371
308.462 509.876 80.917
308.438 509.878 80.4631
308.414 509.881 80.0091
310.156 509.217 114.51
310.133 509.22 114.056
310.109 509.222 113.602
310.085 509.225 113.148
310.062 509.228 112.694
310.038 509.231 112.24
310.015 509.234 111.786
309.991 509.236 111.332
309.967 509.239 110.878
309.944 509.242 110.424
309.92 509.245 109.97
309.896 509.248 109.516
309.873 509.25 109.062
309.849 509.253 108.608
309.826 509.256 108.155
309.802 509.259 107.701
309.778 509.262 107.247
309.755 509.264 106.793
309.731 509.267 106.339
309.707 509.27 105.885
309.684 509.273 105.431
309.66 509.276 104.977
309.637 509.278 104.523
309.613 509.281 104.069
309.589 509.284 103.615
309.566 509.287 103.161
309.542 509.29 102.707
309.518 509.292 102.253
309.495 509.295 101.799
309.471 509.298 101.345
309.448 509.301 100.891
309.424 509.304 100.437
309.4 509.306 99.9833
309.377 509.309 99.5293
309.353 509.312 99.0753
309.329 509.315 98.6214
309.306 509.318 98.1674
309.282 509.32 97.7135
309.259 509.323 97.2595
309.235 509.326 96.8055
309.211 509.329 96.3516
309.188 509.332 95.8976
309.164 509.334 95.4437
309.14 509.337 94.9897
309.117 509.34 94.5358
309.093 509.343 94.0818
309.07 509.346 93.6278
309.046 509.348 93.1739
309.022 509.351 92.7199
308.999 509.354 92.266
308.975 509.357 91.812
308.951 509.36 91.3581
308.928 509.362 90.9041
308.904 509.365 90.4501
308.881 509.368 89.9962
308.857 509.371 89.5422
308.833 509.374 89.0883
308.81 509.376 88.6343
308.786 509.379 88.1803
308.762 509.382 87.7264
308.739 509.385 87.2724
308.715 509.388 86.8185
308.692 509.391 86.3645
308.668 509.393 85.9106
308.644 509.396 85.4566
308.621 509.399 85.0026
308.597 509.402 84.5487
308.573 509.405 84.0947
308.55 509.407 83.6408
308.526 509.41 83.1868
308.503 509.413 82.7329
308.479 509.416 82.2789
308.455 509.419 81.8249
308.432 509.421 81.371
308.408 509.424 80.917
308.384 509.427 80.4631
308.361 509.43 80.0091
310.103 508.765 114.51
310.079 508.768 114.056
310.056 508.771 113.602
310.032 508.774 113.148
310.008 508.777 112.694
309.985 508.779 112.24
309.961 508.782 111.786
309.937 508.785 111.332
309.914 508.788 110.878
309.89 508.791 110.424
309.867 508.793 109.97
309.843 508.796 109.516
309.819 508.799 109.062
309.796 508.802 108.608
309.772 508.805 108.155
309.748 508.807 107.701
309.725 508.81 107.247
309.701 508.813 106.793
309.678 508.816 106.339
309.654 508.819 105.885
309.63 508.821 105.431
309.607 508.824 104.977
309.583 508.827 104.523
309.559 508.83 104.069
309.536 508.833 103.615
309.512 508.835 103.161
309.489 508.838 102.707
309.465 508.841 102.253
309.441 508.844 101.799
309.418 508.847 101.345
309.394 508.849 100.891
309.37 508.852 100.437
309.347 508.855 99.9833
309.323 508.858 99.5293
309.3 508.861 99.0753
309.276 508.863 98.6214
309.252 508.866 98.1674
309.229 508.869 97.7135
309.205 508.872 97.2595
309.181 508.875 96.8055
309.158 508.877 96.3516
309.134 508.88 95.8976
309.111 508.883 95.4437
309.087 508.886 94.9897
309.063 508.889 94.5358
309.04 508.891 94.0818
309.016 508.894 93.6278
308.992 508.897 93.1739
308.969 508.9 92.7199
308.945 508.903 92.266
308.922 508.905 91.812
308.898 508.908 91.3581
308.874 508.911 90.9041
308.851 508.914 90.4501
308.827 508.917 89.9962
308.803 508.919 89.5422
308.78 508.922 89.0883
308.756 508.925 88.6343
308.733 508.928 88.1803
308.709 508.931 87.7264
308.685 508.933 87.2724
308.662 508.936 86.8185
308.638 508.939 86.3645
308.614 508.942 85.9106
308.591 508.945 85.4566
308.567 508.947 85.0026
308.544 508.95 84.5487
308.52 508.953 84.0947
308.496 508.956 83.6408
308.473 508.959 83.1868
308.449 508.961 82.7329
308.425 508.964 82.2789
308.402 508.967 81.8249
308.378 508.97 81.371
308.355 508.973 80.917
308.331 508.975 80.4631
308.307 508.978 80.0091
310.073 508.311 114.964
310.049 508.314 114.51
310.026 508.317 114.056
310.002 508.32 113.602
309.978 508.322 113.148
309.955 508.325 112.694
309.931 508.328 112.24
309.908 508.331 111.786
309.884 508.334 111.332
309.86 508.336 110.878
309.837 508.339 110.424
309.813 508.342 109.97
309.789 508.345 109.516
309.766 508.348 109.062
309.742 508.35 108.608
309.719 508.353 108.155
309.695 508.356 107.701
309.671 508.359 107.247
309.648 508.362 106.793
309.624 508.364 106.339
309.6 508.367 105.885
309.577 508.37 105.431
309.553 508.373 104.977
309.53 508.376 104.523
309.506 508.378 104.069
309.482 508.381 103.615
309.459 508.384 103.161
309.435 508.387 102.707
309.411 508.39 102.253
309.388 508.392 101.799
309.364 508.395 101.345
309.341 508.398 100.891
309.317 508.401 100.437
309.293 508.404 99.9833
309.27 508.406 99.5293
309.246 508.409 99.0753
309.222 508.412 98.6214
309.199 508.415 98.1674
309.175 508.418 97.7135
309.152 508.42 97.2595
309.128 508.423 96.8055
309.104 508.426 96.3516
309.081 508.429 95.8976
309.057 508.432 95.4437
309.033 508.434 94.9897
309.01 508.437 94.5358
308.986 508.44 94.0818
308.963 508.443 93.6278
308.939 508.446 93.1739
308.915 508.448 92.7199
308.892 508.451 92.266
308.868 508.454 91.812
308.844 508.457 91.3581
308.821 508.46 90.9041
308.797 508.462 90.4501
308.774 508.465 89.9962
308.75 508.468 89.5422
308.726 508.471 89.0883
308.703 508.474 88.6343
308.679 508.476 88.1803
308.655 508.479 87.7264
308.632 508.482 87.2724
308.608 508.485 86.8185
308.585 508.488 86.3645
308.561 508.49 85.9106
308.537 508.493 85.4566
308.514 508.496 85.0026
308.49 508.499 84.5487
308.466 508.502 84.0947
308.443 508.504 83.6408
308.419 508.507 83.1868
308.396 508.51 82.7329
308.372 508.513 82.2789
308.348 508.516 81.8249
308.325 508.518 81.371
308.301 508.521 80.917
308.277 508.524 80.4631
308.254 508.527 80.0091
310.019 507.86 114.964
309.996 507.863 114.51
309.972 507.865 114.056
309.949 507.868 113.602
309.925 507.871 113.148
309.901 507.874 112.694
309.878 507.877 112.24
309.854 507.879 111.786
309.83 507.882 111.332
309.807 507.885 110.878
309.783 507.888 110.424
309.76 507.891 109.97
309.736 507.893 109.516
309.712 507.896 109.062
309.689 507.899 108.608
309.665 507.902 108.155
309.641 507.905 107.701
309.618 507.907 107.247
309.594 507.91 106.793
309.571 507.913 106.339
309.547 507.916 105.885
309.523 507.919 105.431
309.5 507.921 104.977
309.476 507.924 104.523
309.452 507.927 104.069
309.429 507.93 103.615
309.405 507.933 103.161
309.382 507.935 102.707
309.358 507.938 102.253
309.334 507.941 101.799
309.311 507.944 101.345
309.287 507.947 100.891
309.263 507.949 100.437
309.24 507.952 99.9833
309.216 507.955 99.5293
309.193 507.958 99.0753
309.169 507.961 98.6214
309.145 507.963 98.1674
309.122 507.966 97.7135
309.098 507.969 97.2595
309.074 507.972 96.8055
309.051 507.975 96.3516
309.027 507.977 95.8976
309.004 507.98 95.4437
308.98 507.983 94.9897
308.956 507.986 94.5358
308.933 507.989 94.0818
308.909 507.991 93.6278
308.885 507.994 93.1739
308.862 507.997 92.7199
308.838 508 92.266
308.815 508.003 91.812
308.791 508.005 91.3581
308.767 508.008 90.9041
308.744 508.011 90.4501
308.72 508.014 89.9962
308.696 508.017 89.5422
308.673 508.019 89.0883
308.649 508.022 88.6343
308.626 508.025 88.1803
308.602 508.028 87.7264
308.578 508.031 87.2724
308.555 508.033 86.8185
308.531 508.036 86.3645
308.507 508.039 85.9106
308.484 508.042 85.4566
308.46 508.045 85.0026
308.437 508.047 84.5487
308.413 508.05 84.0947
308.389 508.053 83.6408
308.366 508.056 83.1868
308.342 508.059 82.7329
308.318 508.061 82.2789
308.295 508.064 81.8249
308.271 508.067 81.371
308.248 508.07 80.917
308.224 508.073 80.4631
308.2 508.075 80.0091
309.966 507.408 114.964
309.942 507.411 114.51
309.919 507.414 114.056
309.895 507.417 113.602
309.871 507.42 113.148
309.848 507.422 112.694
309.824 507.425 112.24
309.801 507.428 111.786
309.777 507.431 111.332
309.753 507.434 110.878
309.73 507.436 110.424
309.706 507.439 109.97
309.682 507.442 109.516
309.659 507.445 109.062
309.635 507.448 108.608
309.612 507.45 108.155
309.588 507.453 107.701
309.564 507.456 107.247
309.541 507.459 106.793
309.517 507.462 106.339
309.493 507.464 105.885
309.47 507.467 105.431
309.446 507.47 104.977
309.423 507.473 104.523
309.399 507.476 104.069
309.375 507.478 103.615
309.352 507.481 103.161
309.328 507.484 102.707
309.304 507.487 102.253
309.281 507.49 101.799
309.257 507.492 101.345
309.234 507.495 100.891
309.21 507.498 100.437
309.186 507.501 99.9833
309.163 507.504 99.5293
309.139 507.506 99.0753
309.115 507.509 98.6214
309.092 507.512 98.1674
309.068 507.515 97.7135
309.045 507.518 97.2595
309.021 507.52 96.8055
308.997 507.523 96.3516
308.974 507.526 95.8976
308.95 507.529 95.4437
308.926 507.532 94.9897
308.903 507.534 94.5358
308.879 507.537 94.0818
308.856 507.54 93.6278
308.832 507.543 93.1739
308.808 507.546 92.7199
308.785 507.548 92.266
308.761 507.551 91.812
308.737 507.554 91.3581
308.714 507.557 90.9041
308.69 507.56 90.4501
308.666 507.562 89.9962
308.643 507.565 89.5422
308.619 507.568 89.0883
308.596 507.571 88.6343
308.572 507.574 88.1803
308.548 507.576 87.7264
308.525 507.579 87.2724
308.501 507.582 86.8185
308.477 507.585 86.3645
308.454 507.588 85.9106
308.43 507.59 85.4566
308.407 507.593 85.0026
308.383 507.596 84.5487
308.359 507.599 84.0947
308.336 507.602 83.6408
308.312 507.604 83.1868
308.288 507.607 82.7329
308.265 507.61 82.2789
308.241 507.613 81.8249
308.218 507.616 81.371
308.194 507.618 80.917
308.17 507.621 80.4631
308.147 507.624 80.0091
309.912 506.957 114.964
309.889 506.96 114.51
309.865 506.963 114.056
309.841 506.965 113.602
309.818 506.968 113.148
309.794 506.971 112.694
309.771 506.974 112.24
309.747 506.977 111.786
309.723 506.979 111.332
309.7 506.982 110.878
309.676 506.985 110.424
309.652 506.988 109.97
309.629 506.991 109.516
309.605 506.993 109.062
309.582 506.996 108.608
309.558 506.999 108.155
309.534 507.002 107.701
309.511 507.005 107.247
309.487 507.007 106.793
309.463 507.01 106.339
309.44 507.013 105.885
309.416 507.016 105.431
309.393 507.019 104.977
309.369 507.021 104.523
309.345 507.024 104.069
309.322 507.027 103.615
309.298 507.03 103.161
309.274 507.033 102.707
309.251 507.035 102.253
309.227 507.038 101.799
309.204 507.041 101.345
309.18 507.044 100.891
309.156 507.047 100.437
309.133 507.049 99.9833
309.109 507.052 99.5293
309.085 507.055 99.0753
309.062 507.058 98.6214
309.038 507.061 98.1674
309.015 507.063 97.7135
308.991 507.066 97.2595
308.967 507.069 96.8055
308.944 507.072 96.3516
308.92 507.075 95.8976
308.896 507.077 95.4437
308.873 507.08 94.9897
308.849 507.083 94.5358
308.826 507.086 94.0818
308.802 507.089 93.6278
308.778 507.091 93.1739
308.755 507.094 92.7199
308.731 507.097 92.266
308.707 507.1 91.812
308.684 507.103 91.3581
308.66 507.105 90.9041
308.637 507.108 90.4501
308.613 507.111 89.9962
308.589 507.114 89.5422
308.566 507.117 89.0883
308.542 507.119 88.6343
308.518 507.122 88.1803
308.495 507.125 87.7264
308.471 507.128 87.2724
308.448 507.131 86.8185
308.424 507.133 86.3645
308.4 507.136 85.9106
308.377 507.139 85.4566
308.353 507.142 85.0026
308.329 507.145 84.5487
308.306 507.147 84.0947
308.282 507.15 83.6408
308.259 507.153 83.1868
308.235 507.156 82.7329
308.211 507.159 82.2789
308.188 507.161 81.8249
308.164 507.164 81.371
308.14 507.167 80.917
308.117 507.17 80.4631
308.093 507.173 80.0091
309.882 506.503 115.418
309.859 506.506 114.964
309.835 506.508 114.51
309.812 506.511 114.056
309.788 506.514 113.602
309.764 506.517 113.148
309.741 506.52 112.694
309.717 506.522 112.24
309.693 506.525 111.786
309.67 506.528 111.332
309.646 506.531 110.878
309.623 506.534 110.424
309.599 506.536 109.97
309.575 506.539 109.516
309.552 506.542 109.062
309.528 506.545 108.608
309.504 506.548 108.155
309.481 506.55 107.701
309.457 506.553 107.247
309.434 506.556 106.793
309.41 506.559 106.339
309.386 506.562 105.885
309.363 506.564 105.431
309.339 506.567 104.977
309.315 506.57 104.523
309.292 506.573 104.069
309.268 506.576 103.615
309.245 506.578 103.161
309.221 506.581 102.707
309.197 506.584 102.253
309.174 506.587 101.799
309.15 506.59 101.345
309.126 506.592 100.891
309.103 506.595 100.437
309.079 506.598 99.9833
309.056 506.601 99.5293
309.032 506.604 99.0753
309.008 506.606 98.6214
308.985 506.609 98.1674
308.961 506.612 97.7135
308.937 506.615 97.2595
308.914 506.618 96.8055
308.89 506.62 96.3516
308.867 506.623 95.8976
308.843 506.626 95.4437
308.819 506.629 94.9897
308.796 506.632 94.5358
308.772 506.634 94.0818
308.748 506.637 93.6278
308.725 506.64 93.1739
308.701 506.643 92.7199
308.678 506.646 92.266
308.654 506.648 91.812
308.63 506.651 91.3581
308.607 506.654 90.9041
308.583 506.657 90.4501
308.559 506.66 89.9962
308.536 506.662 89.5422
308.512 506.665 89.0883
308.489 506.668 88.6343
308.465 506.671 88.1803
308.441 506.674 87.7264
308.418 506.676 87.2724
308.394 506.679 86.8185
308.37 506.682 86.3645
308.347 506.685 85.9106
308.323 506.688 85.4566
308.3 506.69 85.0026
308.276 506.693 84.5487
308.252 506.696 84.0947
308.229 506.699 83.6408
308.205 506.702 83.1868
308.181 506.704 82.7329
308.158 506.707 82.2789
308.134 506.71 81.8249
308.111 506.713 81.371
308.087 506.716 80.917
308.063 506.718 80.4631
308.04 506.721 80.0091
309.829 506.051 115.418
309.805 506.054 114.964
309.782 506.057 114.51
309.758 506.06 114.056
309.734 506.063 113.602
309.711 506.065 113.148
309.687 506.068 112.694
309.664 506.071 112.24
309.64 506.074 111.786
309.616 506.077 111.332
309.593 506.079 110.878
309.569 506.082 110.424
309.545 506.085 109.97
309.522 506.088 109.516
309.498 506.091 109.062
309.475 506.093 108.608
309.451 506.096 108.155
309.427 506.099 107.701
309.404 506.102 107.247
309.38 506.105 106.793
309.356 506.107 106.339
309.333 506.11 105.885
309.309 506.113 105.431
309.286 506.116 104.977
309.262 506.119 104.523
309.238 506.121 104.069
309.215 506.124 103.615
309.191 506.127 103.161
309.167 506.13 102.707
309.144 506.133 102.253
309.12 506.135 101.799
309.097 506.138 101.345
309.073 506.141 100.891
309.049 506.144 100.437
309.026 506.147 99.9833
309.002 506.149 99.5293
308.978 506.152 99.0753
308.955 506.155 98.6214
308.931 506.158 98.1674
308.908 506.161 97.7135
308.884 506.163 97.2595
308.86 506.166 96.8055
308.837 506.169 96.3516
308.813 506.172 95.8976
308.789 506.175 95.4437
308.766 506.177 94.9897
308.742 506.18 94.5358
308.719 506.183 94.0818
308.695 506.186 93.6278
308.671 506.189 93.1739
308.648 506.191 92.7199
308.624 506.194 92.266
308.6 506.197 91.812
308.577 506.2 91.3581
308.553 506.203 90.9041
308.53 506.205 90.4501
308.506 506.208 89.9962
308.482 506.211 89.5422
308.459 506.214 89.0883
308.435 506.217 88.6343
308.411 506.219 88.1803
308.388 506.222 87.7264
308.364 506.225 87.2724
308.341 506.228 86.8185
308.317 506.231 86.3645
308.293 506.233 85.9106
308.27 506.236 85.4566
308.246 506.239 85.0026
308.222 506.242 84.5487
308.199 506.245 84.0947
308.175 506.247 83.6408
308.152 506.25 83.1868
308.128 506.253 82.7329
308.104 506.256 82.2789
308.081 506.259 81.8249
308.057 506.261 81.371
308.033 506.264 80.917
308.01 506.267 80.4631
307.986 506.27 80.0091
309.775 505.6 115.418
309.752 505.603 114.964
309.728 505.605 114.51
309.705 505.608 114.056
309.681 505.611 113.602
309.657 505.614 113.148
309.634 505.617 112.694
309.61 505.619 112.24
309.586 505.622 111.786
309.563 505.625 111.332
309.539 505.628 110.878
309.516 505.631 110.424
309.492 505.633 109.97
309.468 505.636 109.516
309.445 505.639 109.062
309.421 505.642 108.608
309.397 505.645 108.155
309.374 505.647 107.701
309.35 505.65 107.247
309.327 505.653 106.793
309.303 505.656 106.339
309.279 505.659 105.885
309.256 505.662 105.431
309.232 505.664 104.977
309.208 505.667 104.523
309.185 505.67 104.069
309.161 505.673 103.615
309.138 505.676 103.161
309.114 505.678 102.707
309.09 505.681 102.253
309.067 505.684 101.799
309.043 505.687 101.345
309.019 505.69 100.891
308.996 505.692 100.437
308.972 505.695 99.9833
308.949 505.698 99.5293
308.925 505.701 99.0753
308.901 505.704 98.6214
308.878 505.706 98.1674
308.854 505.709 97.7135
308.83 505.712 97.2595
308.807 505.715 96.8055
308.783 505.718 96.3516
308.76 505.72 95.8976
308.736 505.723 95.4437
308.712 505.726 94.9897
308.689 505.729 94.5358
308.665 505.732 94.0818
308.641 505.734 93.6278
308.618 505.737 93.1739
308.594 505.74 92.7199
308.571 505.743 92.266
308.547 505.746 91.812
308.523 505.748 91.3581
308.5 505.751 90.9041
308.476 505.754 90.4501
308.452 505.757 89.9962
308.429 505.76 89.5422
308.405 505.762 89.0883
308.382 505.765 88.6343
308.358 505.768 88.1803
308.334 505.771 87.7264
308.311 505.774 87.2724
308.287 505.776 86.8185
308.263 505.779 86.3645
308.24 505.782 85.9106
308.216 505.785 85.4566
308.193 505.788 85.0026
308.169 505.79 84.5487
308.145 505.793 84.0947
308.122 505.796 83.6408
308.098 505.799 83.1868
308.074 505.802 82.7329
308.051 505.804 82.2789
308.027 505.807 81.8249
308.004 505.81 81.371
307.98 505.813 80.917
307.956 505.816 80.4631
307.933 505.818 80.0091
309.722 505.148 115.418
309.698 505.151 114.964
309.675 505.154 114.51
309.651 505.157 114.056
309.627 505.16 113.602
309.604 505.162 113.148
309.58 505.165 112.694
309.557 505.168 112.24
309.533 505.171 111.786
309.509 505.174 111.332
309.486 505.176 110.878
309.462 505.179 110.424
309.438 505.182 109.97
309.415 505.185 109.516
309.391 505.188 109.062
309.368 505.19 108.608
309.344 505.193 108.155
309.32 505.196 107.701
309.297 505.199 107.247
309.273 505.202 106.793
309.249 505.204 106.339
309.226 505.207 105.885
309.202 505.21 105.431
309.179 505.213 104.977
309.155 505.216 104.523
309.131 505.218 104.069
309.108 505.221 103.615
309.084 505.224 103.161
309.06 505.227 102.707
309.037 505.23 102.253
309.013 505.232 101.799
308.99 505.235 101.345
308.966 505.238 100.891
308.942 505.241 100.437
308.919 505.244 99.9833
308.895 505.246 99.5293
308.871 505.249 99.0753
308.848 505.252 98.6214
308.824 505.255 98.1674
308.801 505.258 97.7135
308.777 505.261 97.2595
308.753 505.263 96.8055
308.73 505.266 96.3516
308.706 505.269 95.8976
308.682 505.272 95.4437
308.659 505.275 94.9897
308.635 505.277 94.5358
308.612 505.28 94.0818
308.588 505.283 93.6278
308.564 505.286 93.1739
308.541 505.289 92.7199
308.517 505.291 92.266
308.493 505.294 91.812
308.47 505.297 91.3581
308.446 505.3 90.9041
308.423 505.303 90.4501
308.399 505.305 89.9962
308.375 505.308 89.5422
308.352 505.311 89.0883
308.328 505.314 88.6343
308.304 505.317 88.1803
308.281 505.319 87.7264
308.257 505.322 87.2724
308.234 505.325 86.8185
308.21 505.328 86.3645
308.186 505.331 85.9106
308.163 505.333 85.4566
308.139 505.336 85.0026
308.115 505.339 84.5487
308.092 505.342 84.0947
308.068 505.345 83.6408
308.045 505.347 83.1868
308.021 505.35 82.7329
307.997 505.353 82.2789
307.974 505.356 81.8249
307.95 505.359 81.371
307.926 505.361 80.917
307.903 505.364 80.4631
307.879 505.367 80.0091
309.692 504.694 115.872
309.668 504.697 115.418
309.645 504.7 114.964
309.621 504.703 114.51
309.598 504.705 114.056
309.574 504.708 113.602
309.55 504.711 113.148
309.527 504.714 112.694
309.503 504.717 112.24
309.479 504.719 111.786
309.456 504.722 111.332
309.432 504.725 110.878
309.409 504.728 110.424
309.385 504.731 109.97
309.361 504.733 109.516
309.338 504.736 109.062
309.314 504.739 108.608
309.29 504.742 108.155
309.267 504.745 107.701
309.243 504.747 107.247
309.22 504.75 106.793
309.196 504.753 106.339
309.172 504.756 105.885
309.149 504.759 105.431
309.125 504.761 104.977
309.101 504.764 104.523
309.078 504.767 104.069
309.054 504.77 103.615
309.031 504.773 103.161
309.007 504.775 102.707
308.983 504.778 102.253
308.96 504.781 101.799
308.936 504.784 101.345
308.912 504.787 100.891
308.889 504.789 100.437
308.865 504.792 99.9833
308.841 504.795 99.5293
308.818 504.798 99.0753
308.794 504.801 98.6214
308.771 504.803 98.1674
308.747 504.806 97.7135
308.723 504.809 97.2595
308.7 504.812 96.8055
308.676 504.815 96.3516
308.652 504.817 95.8976
308.629 504.82 95.4437
308.605 504.823 94.9897
308.582 504.826 94.5358
308.558 504.829 94.0818
308.534 504.831 93.6278
308.511 504.834 93.1739
308.487 504.837 92.7199
308.463 504.84 92.266
308.44 504.843 91.812
308.416 504.846 91.3581
308.393 504.848 90.9041
308.369 504.851 90.4501
308.345 504.854 89.9962
308.322 504.857 89.5422
308.298 504.86 89.0883
308.274 504.862 88.6343
308.251 504.865 88.1803
308.227 504.868 87.7264
308.204 504.871 87.2724
308.18 504.874 86.8185
308.156 504.876 86.3645
308.133 504.879 85.9106
308.109 504.882 85.4566
308.085 504.885 85.0026
308.062 504.888 84.5487
308.038 504.89 84.0947
308.015 504.893 83.6408
307.991 504.896 83.1868
307.967 504.899 82.7329
307.944 504.902 82.2789
307.92 504.904 81.8249
307.896 504.907 81.371
307.873 504.91 80.917
307.849 504.913 80.4631
307.826 504.916 80.0091
309.638 504.243 115.872
309.615 504.246 115.418
309.591 504.248 114.964
309.568 504.251 114.51
309.544 504.254 114.056
309.52 504.257 113.602
309.497 504.26 113.148
309.473 504.262 112.694
309.449 504.265 112.24
309.426 504.268 111.786
309.402 504.271 111.332
309.379 504.274 110.878
309.355 504.276 110.424
309.331 504.279 109.97
309.308 504.282 109.516
309.284 504.285 109.062
309.26 504.288 108.608
309.237 504.29 108.155
309.213 504.293 107.701
309.19 504.296 107.247
309.166 504.299 106.793
309.142 504.302 106.339
309.119 504.304 105.885
309.095 504.307 105.431
309.071 504.31 104.977
309.048 504.313 104.523
309.024 504.316 104.069
309.001 504.318 103.615
308.977 504.321 103.161
308.953 504.324 102.707
308.93 504.327 102.253
308.906 504.33 101.799
308.882 504.332 101.345
308.859 504.335 100.891
308.835 504.338 100.437
308.812 504.341 99.9833
308.788 504.344 99.5293
308.764 504.346 99.0753
308.741 504.349 98.6214
308.717 504.352 98.1674
308.693 504.355 97.7135
308.67 504.358 97.2595
308.646 504.36 96.8055
308.623 504.363 96.3516
308.599 504.366 95.8976
308.575 504.369 95.4437
308.552 504.372 94.9897
308.528 504.374 94.5358
308.504 504.377 94.0818
308.481 504.38 93.6278
308.457 504.383 93.1739
308.434 504.386 92.7199
308.41 504.388 92.266
308.386 504.391 91.812
308.363 504.394 91.3581
308.339 504.397 90.9041
308.315 504.4 90.4501
308.292 504.402 89.9962
308.268 504.405 89.5422
308.245 504.408 89.0883
308.221 504.411 88.6343
308.197 504.414 88.1803
308.174 504.416 87.7264
308.15 504.419 87.2724
308.126 504.422 86.8185
308.103 504.425 86.3645
308.079 504.428 85.9106
308.056 504.43 85.4566
308.032 504.433 85.0026
308.008 504.436 84.5487
307.985 504.439 84.0947
307.961 504.442 83.6408
307.937 504.445 83.1868
307.914 504.447 82.7329
307.89 504.45 82.2789
307.867 504.453 81.8249
307.843 504.456 81.371
307.819 504.459 80.917
307.796 504.461 80.4631
307.772 504.464 80.0091
309.585 503.791 115.872
309.561 503.794 115.418
309.538 503.797 114.964
309.514 503.8 114.51
309.49 503.803 114.056
309.467 503.805 113.602
309.443 503.808 113.148
309.42 503.811 112.694
309.396 503.814 112.24
309.372 503.817 111.786
309.349 503.819 111.332
309.325 503.822 110.878
309.301 503.825 110.424
309.278 503.828 109.97
309.254 503.831 109.516
309.231 503.833 109.062
309.207 503.836 108.608
309.183 503.839 108.155
309.16 503.842 107.701
309.136 503.845 107.247
309.112 503.847 106.793
309.089 503.85 106.339
309.065 503.853 105.885
309.042 503.856 105.431
309.018 503.859 104.977
308.994 503.861 104.523
308.971 503.864 104.069
308.947 503.867 103.615
308.923 503.87 103.161
308.9 503.873 102.707
308.876 503.875 102.253
308.853 503.878 101.799
308.829 503.881 101.345
308.805 503.884 100.891
308.782 503.887 100.437
308.758 503.889 99.9833
308.734 503.892 99.5293
308.711 503.895 99.0753
308.687 503.898 98.6214
308.664 503.901 98.1674
308.64 503.903 97.7135
308.616 503.906 97.2595
308.593 503.909 96.8055
308.569 503.912 96.3516
308.545 503.915 95.8976
308.522 503.917 95.4437
308.498 503.92 94.9897
308.475 503.923 94.5358
308.451 503.926 94.0818
308.427 503.929 93.6278
308.404 503.931 93.1739
308.38 503.934 92.7199
308.356 503.937 92.266
308.333 503.94 91.812
308.309 503.943 91.3581
308.286 503.945 90.9041
308.262 503.948 90.4501
308.238 503.951 89.9962
308.215 503.954 89.5422
308.191 503.957 89.0883
308.167 503.959 88.6343
308.144 503.962 88.1803
308.12 503.965 87.7264
308.097 503.968 87.2724
308.073 503.971 86.8185
308.049 503.973 86.3645
308.026 503.976 85.9106
308.002 503.979 85.4566
307.978 503.982 85.0026
307.955 503.985 84.5487
307.931 503.987 84.0947
307.908 503.99 83.6408
307.884 503.993 83.1868
307.86 503.996 82.7329
307.837 503.999 82.2789
307.813 504.001 81.8249
307.789 504.004 81.371
307.766 504.007 80.917
307.742 504.01 80.4631
307.719 504.013 80.0091
309.531 503.34 115.872
309.508 503.343 115.418
309.484 503.346 114.964
309.461 503.348 114.51
309.437 503.351 114.056
309.413 503.354 113.602
309.39 503.357 113.148
309.366 503.36 112.694
309.342 503.362 112.24
309.319 503.365 111.786
309.295 503.368 111.332
309.272 503.371 110.878
309.248 503.374 110.424
309.224 503.376 109.97
309.201 503.379 109.516
309.177 503.382 109.062
309.153 503.385 108.608
309.13 503.388 108.155
309.106 503.39 107.701
309.083 503.393 107.247
309.059 503.396 106.793
309.035 503.399 106.339
309.012 503.402 105.885
308.988 503.404 105.431
308.964 503.407 104.977
308.941 503.41 104.523
308.917 503.413 104.069
308.894 503.416 103.615
308.87 503.418 103.161
308.846 503.421 102.707
308.823 503.424 102.253
308.799 503.427 101.799
308.775 503.43 101.345
308.752 503.432 100.891
308.728 503.435 100.437
308.705 503.438 99.9833
308.681 503.441 99.5293
308.657 503.444 99.0753
308.634 503.446 98.6214
308.61 503.449 98.1674
308.586 503.452 97.7135
308.563 503.455 97.2595
308.539 503.458 96.8055
308.516 503.46 96.3516
308.492 503.463 95.8976
308.468 503.466 95.4437
308.445 503.469 94.9897
308.421 503.472 94.5358
308.397 503.474 94.0818
308.374 503.477 93.6278
308.35 503.48 93.1739
308.327 503.483 92.7199
308.303 503.486 92.266
308.279 503.488 91.812
308.256 503.491 91.3581
308.232 503.494 90.9041
308.208 503.497 90.4501
308.185 503.5 89.9962
308.161 503.502 89.5422
308.138 503.505 89.0883
308.114 503.508 88.6343
308.09 503.511 88.1803
308.067 503.514 87.7264
308.043 503.516 87.2724
308.019 503.519 86.8185
307.996 503.522 86.3645
307.972 503.525 85.9106
307.949 503.528 85.4566
307.925 503.53 85.0026
307.901 503.533 84.5487
307.878 503.536 84.0947
307.854 503.539 83.6408
307.83 503.542 83.1868
307.807 503.544 82.7329
307.783 503.547 82.2789
307.76 503.55 81.8249
307.736 503.553 81.371
307.712 503.556 80.917
307.689 503.558 80.4631
307.665 503.561 80.0091
309.478 502.889 115.872
309.454 502.891 115.418
309.431 502.894 114.964
309.407 502.897 114.51
309.383 502.9 114.056
309.36 502.903 113.602
309.336 502.905 113.148
309.313 502.908 112.694
309.289 502.911 112.24
309.265 502.914 111.786
309.242 502.917 111.332
309.218 502.919 110.878
309.194 502.922 110.424
309.171 502.925 109.97
309.147 502.928 109.516
309.124 502.931 109.062
309.1 502.933 108.608
309.076 502.936 108.155
309.053 502.939 107.701
309.029 502.942 107.247
309.005 502.945 106.793
308.982 502.947 106.339
308.958 502.95 105.885
308.935 502.953 105.431
308.911 502.956 104.977
308.887 502.959 104.523
308.864 502.961 104.069
308.84 502.964 103.615
308.816 502.967 103.161
308.793 502.97 102.707
308.769 502.973 102.253
308.746 502.975 101.799
308.722 502.978 101.345
308.698 502.981 100.891
308.675 502.984 100.437
308.651 502.987 99.9833
308.627 502.989 99.5293
308.604 502.992 99.0753
308.58 502.995 98.6214
308.557 502.998 98.1674
308.533 503.001 97.7135
308.509 503.003 97.2595
308.486 503.006 96.8055
308.462 503.009 96.3516
308.438 503.012 95.8976
308.415 503.015 95.4437
308.391 503.017 94.9897
308.368 503.02 94.5358
308.344 503.023 94.0818
308.32 503.026 93.6278
308.297 503.029 93.1739
308.273 503.031 92.7199
308.249 503.034 92.266
308.226 503.037 91.812
308.202 503.04 91.3581
308.179 503.043 90.9041
308.155 503.045 90.4501
308.131 503.048 89.9962
308.108 503.051 89.5422
308.084 503.054 89.0883
308.06 503.057 88.6343
308.037 503.059 88.1803
308.013 503.062 87.7264
307.99 503.065 87.2724
307.966 503.068 86.8185
307.942 503.071 86.3645
307.919 503.073 85.9106
307.895 503.076 85.4566
307.871 503.079 85.0026
307.848 503.082 84.5487
307.824 503.085 84.0947
307.801 503.087 83.6408
307.777 503.09 83.1868
307.753 503.093 82.7329
307.73 503.096 82.2789
307.706 503.099 81.8249
307.682 503.101 81.371
307.659 503.104 80.917
307.635 503.107 80.4631
307.612 503.11 80.0091
309.448 502.434 116.326
309.424 502.437 115.872
309.401 502.44 115.418
309.377 502.443 114.964
309.354 502.446 114.51
309.33 502.448 114.056
309.306 502.451 113.602
309.283 502.454 113.148
309.259 502.457 112.694
309.235 502.46 112.24
309.212 502.462 111.786
309.188 502.465 111.332
309.165 502.468 110.878
309.141 502.471 110.424
309.117 502.474 109.97
309.094 502.476 109.516
309.07 502.479 109.062
309.046 502.482 108.608
309.023 502.485 108.155
308.999 502.488 107.701
308.976 502.49 107.247
308.952 502.493 106.793
308.928 502.496 106.339
308.905 502.499 105.885
308.881 502.502 105.431
308.857 502.504 104.977
308.834 502.507 104.523
308.81 502.51 104.069
308.787 502.513 103.615
308.763 502.516 103.161
308.739 502.518 102.707
308.716 502.521 102.253
308.692 502.524 101.799
308.668 502.527 101.345
308.645 502.53 100.891
308.621 502.532 100.437
308.598 502.535 99.9833
308.574 502.538 99.5293
308.55 502.541 99.0753
308.527 502.544 98.6214
308.503 502.546 98.1674
308.479 502.549 97.7135
308.456 502.552 97.2595
308.432 502.555 96.8055
308.409 502.558 96.3516
308.385 502.56 95.8976
308.361 502.563 95.4437
308.338 502.566 94.9897
308.314 502.569 94.5358
308.29 502.572 94.0818
308.267 502.574 93.6278
308.243 502.577 93.1739
308.22 502.58 92.7199
308.196 502.583 92.266
308.172 502.586 91.812
308.149 502.588 91.3581
308.125 502.591 90.9041
308.101 502.594 90.4501
308.078 502.597 89.9962
308.054 502.6 89.5422
308.03 502.602 89.0883
308.007 502.605 88.6343
307.983 502.608 88.1803
307.96 502.611 87.7264
307.936 502.614 87.2724
307.912 502.616 86.8185
307.889 502.619 86.3645
307.865 502.622 85.9106
307.841 502.625 85.4566
307.818 502.628 85.0026
307.794 502.63 84.5487
307.771 502.633 84.0947
307.747 502.636 83.6408
307.723 502.639 83.1868
307.7 502.642 82.7329
307.676 502.644 82.2789
307.652 502.647 81.8249
307.629 502.65 81.371
307.605 502.653 80.917
307.582 502.656 80.4631
307.558 502.658 80.0091
309.395 501.983 116.326
309.371 501.986 115.872
309.347 501.989 115.418
309.324 501.991 114.964
309.3 501.994 114.51
309.276 501.997 114.056
309.253 502 113.602
309.229 502.003 113.148
309.205 502.005 112.694
309.182 502.008 112.24
309.158 502.011 111.786
309.135 502.014 111.332
309.111 502.017 110.878
309.087 502.019 110.424
309.064 502.022 109.97
309.04 502.025 109.516
309.016 502.028 109.062
308.993 502.031 108.608
308.969 502.033 108.155
308.946 502.036 107.701
308.922 502.039 107.247
308.898 502.042 106.793
308.875 502.045 106.339
308.851 502.047 105.885
308.827 502.05 105.431
308.804 502.053 104.977
308.78 502.056 104.523
308.757 502.059 104.069
308.733 502.061 103.615
308.709 502.064 103.161
308.686 502.067 102.707
308.662 502.07 102.253
308.638 502.073 101.799
308.615 502.075 101.345
308.591 502.078 100.891
308.568 502.081 100.437
308.544 502.084 99.9833
308.52 502.087 99.5293
308.497 502.089 99.0753
308.473 502.092 98.6214
308.449 502.095 98.1674
308.426 502.098 97.7135
308.402 502.101 97.2595
308.379 502.103 96.8055
308.355 502.106 96.3516
308.331 502.109 95.8976
308.308 502.112 95.4437
308.284 502.115 94.9897
308.26 502.117 94.5358
308.237 502.12 94.0818
308.213 502.123 93.6278
308.19 502.126 93.1739
308.166 502.129 92.7199
308.142 502.131 92.266
308.119 502.134 91.812
308.095 502.137 91.3581
308.071 502.14 90.9041
308.048 502.143 90.4501
308.024 502.145 89.9962
308.001 502.148 89.5422
307.977 502.151 89.0883
307.953 502.154 88.6343
307.93 502.157 88.1803
307.906 502.159 87.7264
307.882 502.162 87.2724
307.859 502.165 86.8185
307.835 502.168 86.3645
307.812 502.171 85.9106
307.788 502.173 85.4566
307.764 502.176 85.0026
307.741 502.179 84.5487
307.717 502.182 84.0947
307.693 502.185 83.6408
307.67 502.187 83.1868
307.646 502.19 82.7329
307.623 502.193 82.2789
307.599 502.196 81.8249
307.575 502.199 81.371
307.552 502.201 80.917
307.528 502.204 80.4631
307.504 502.207 80.0091
309.341 501.532 116.326
309.317 501.534 115.872
309.294 501.537 115.418
309.27 501.54 114.964
309.246 501.543 114.51
309.223 501.546 114.056
309.199 501.548 113.602
309.176 501.551 113.148
309.152 501.554 112.694
309.128 501.557 112.24
309.105 501.56 111.786
309.081 501.562 111.332
309.057 501.565 110.878
309.034 501.568 110.424
309.01 501.571 109.97
308.987 501.574 109.516
308.963 501.576 109.062
308.939 501.579 108.608
308.916 501.582 108.155
308.892 501.585 107.701
308.868 501.588 107.247
308.845 501.59 106.793
308.821 501.593 106.339
308.798 501.596 105.885
308.774 501.599 105.431
308.75 501.602 104.977
308.727 501.604 104.523
308.703 501.607 104.069
308.679 501.61 103.615
308.656 501.613 103.161
308.632 501.616 102.707
308.609 501.618 102.253
308.585 501.621 101.799
308.561 501.624 101.345
308.538 501.627 100.891
308.514 501.63 100.437
308.49 501.632 99.9833
308.467 501.635 99.5293
308.443 501.638 99.0753
308.42 501.641 98.6214
308.396 501.644 98.1674
308.372 501.646 97.7135
308.349 501.649 97.2595
308.325 501.652 96.8055
308.301 501.655 96.3516
308.278 501.658 95.8976
308.254 501.66 95.4437
308.231 501.663 94.9897
308.207 501.666 94.5358
308.183 501.669 94.0818
308.16 501.672 93.6278
308.136 501.674 93.1739
308.112 501.677 92.7199
308.089 501.68 92.266
308.065 501.683 91.812
308.042 501.686 91.3581
308.018 501.688 90.9041
307.994 501.691 90.4501
307.971 501.694 89.9962
307.947 501.697 89.5422
307.923 501.7 89.0883
307.9 501.702 88.6343
307.876 501.705 88.1803
307.853 501.708 87.7264
307.829 501.711 87.2724
307.805 501.714 86.8185
307.782 501.716 86.3645
307.758 501.719 85.9106
307.734 501.722 85.4566
307.711 501.725 85.0026
307.687 501.728 84.5487
307.664 501.73 84.0947
307.64 501.733 83.6408
307.616 501.736 83.1868
307.593 501.739 82.7329
307.569 501.742 82.2789
307.545 501.744 81.8249
307.522 501.747 81.371
307.498 501.75 80.917
307.475 501.753 80.4631
307.451 501.756 80.0091
309.287 501.08 116.326
309.264 501.083 115.872
309.24 501.086 115.418
309.217 501.088 114.964
309.193 501.091 114.51
309.169 501.094 114.056
309.146 501.097 113.602
309.122 501.1 113.148
309.098 501.102 112.694
309.075 501.105 112.24
309.051 501.108 111.786
309.028 501.111 111.332
309.004 501.114 110.878
308.98 501.116 110.424
308.957 501.119 109.97
308.933 501.122 109.516
308.909 501.125 109.062
308.886 501.128 108.608
308.862 501.131 108.155
308.839 501.133 107.701
308.815 501.136 107.247
308.791 501.139 106.793
308.768 501.142 106.339
308.744 501.145 105.885
308.72 501.147 105.431
308.697 501.15 104.977
308.673 501.153 104.523
308.65 501.156 104.069
308.626 501.159 103.615
308.602 501.161 103.161
308.579 501.164 102.707
308.555 501.167 102.253
308.531 501.17 101.799
308.508 501.173 101.345
308.484 501.175 100.891
308.461 501.178 100.437
308.437 501.181 99.9833
308.413 501.184 99.5293
308.39 501.187 99.0753
308.366 501.189 98.6214
308.342 501.192 98.1674
308.319 501.195 97.7135
308.295 501.198 97.2595
308.272 501.201 96.8055
308.248 501.203 96.3516
308.224 501.206 95.8976
308.201 501.209 95.4437
308.177 501.212 94.9897
308.153 501.215 94.5358
308.13 501.217 94.0818
308.106 501.22 93.6278
308.083 501.223 93.1739
308.059 501.226 92.7199
308.035 501.229 92.266
308.012 501.231 91.812
307.988 501.234 91.3581
307.964 501.237 90.9041
307.941 501.24 90.4501
307.917 501.243 89.9962
307.894 501.245 89.5422
307.87 501.248 89.0883
307.846 501.251 88.6343
307.823 501.254 88.1803
307.799 501.257 87.7264
307.775 501.259 87.2724
307.752 501.262 86.8185
307.728 501.265 86.3645
307.705 501.268 85.9106
307.681 501.271 85.4566
307.657 501.273 85.0026
307.634 501.276 84.5487
307.61 501.279 84.0947
307.586 501.282 83.6408
307.563 501.285 83.1868
307.539 501.287 82.7329
307.516 501.29 82.2789
307.492 501.293 81.8249
307.468 501.296 81.371
307.445 501.299 80.917
307.421 501.301 80.4631
307.397 501.304 80.0091
309.234 500.629 116.326
309.21 500.631 115.872
309.187 500.634 115.418
309.163 500.637 114.964
309.139 500.64 114.51
309.116 500.643 114.056
309.092 500.645 113.602
309.069 500.648 113.148
309.045 500.651 112.694
309.021 500.654 112.24
308.998 500.657 111.786
308.974 500.659 111.332
308.95 500.662 110.878
308.927 500.665 110.424
308.903 500.668 109.97
308.88 500.671 109.516
308.856 500.673 109.062
308.832 500.676 108.608
308.809 500.679 108.155
308.785 500.682 107.701
308.761 500.685 107.247
308.738 500.687 106.793
308.714 500.69 106.339
308.691 500.693 105.885
308.667 500.696 105.431
308.643 500.699 104.977
308.62 500.701 104.523
308.596 500.704 104.069
308.572 500.707 103.615
308.549 500.71 103.161
308.525 500.713 102.707
308.502 500.716 102.253
308.478 500.718 101.799
308.454 500.721 101.345
308.431 500.724 100.891
308.407 500.727 100.437
308.383 500.73 99.9833
308.36 500.732 99.5293
308.336 500.735 99.0753
308.313 500.738 98.6214
308.289 500.741 98.1674
308.265 500.744 97.7135
308.242 500.746 97.2595
308.218 500.749 96.8055
308.194 500.752 96.3516
308.171 500.755 95.8976
308.147 500.758 95.4437
308.124 500.76 94.9897
308.1 500.763 94.5358
308.076 500.766 94.0818
308.053 500.769 93.6278
308.029 500.772 93.1739
308.005 500.774 92.7199
307.982 500.777 92.266
307.958 500.78 91.812
307.935 500.783 91.3581
307.911 500.786 90.9041
307.887 500.788 90.4501
307.864 500.791 89.9962
307.84 500.794 89.5422
307.816 500.797 89.0883
307.793 500.8 88.6343
307.769 500.802 88.1803
307.746 500.805 87.7264
307.722 500.808 87.2724
307.698 500.811 86.8185
307.675 500.814 86.3645
307.651 500.816 85.9106
307.627 500.819 85.4566
307.604 500.822 85.0026
307.58 500.825 84.5487
307.557 500.828 84.0947
307.533 500.83 83.6408
307.509 500.833 83.1868
307.486 500.836 82.7329
307.462 500.839 82.2789
307.438 500.842 81.8249
307.415 500.844 81.371
307.391 500.847 80.917
307.368 500.85 80.4631
307.344 500.853 80.0091
309.18 500.177 116.326
309.157 500.18 115.872
309.133 500.183 115.418
309.11 500.186 114.964
309.086 500.188 114.51
309.062 500.191 114.056
309.039 500.194 113.602
309.015 500.197 113.148
308.991 500.2 112.694
308.968 500.202 112.24
308.944 500.205 111.786
308.921 500.208 111.332
308.897 500.211 110.878
308.873 500.214 110.424
308.85 500.216 109.97
308.826 500.219 109.516
308.802 500.222 109.062
308.779 500.225 108.608
308.755 500.228 108.155
308.732 500.23 107.701
308.708 500.233 107.247
308.684 500.236 106.793
308.661 500.239 106.339
308.637 500.242 105.885
308.613 500.244 105.431
308.59 500.247 104.977
308.566 500.25 104.523
308.543 500.253 104.069
308.519 500.256 103.615
308.495 500.258 103.161
308.472 500.261 102.707
308.448 500.264 102.253
308.424 500.267 101.799
308.401 500.27 101.345
308.377 500.272 100.891
308.354 500.275 100.437
308.33 500.278 99.9833
308.306 500.281 99.5293
308.283 500.284 99.0753
308.259 500.286 98.6214
308.235 500.289 98.1674
308.212 500.292 97.7135
308.188 500.295 97.2595
308.165 500.298 96.8055
308.141 500.3 96.3516
308.117 500.303 95.8976
308.094 500.306 95.4437
308.07 500.309 94.9897
308.046 500.312 94.5358
308.023 500.315 94.0818
307.999 500.317 93.6278
307.976 500.32 93.1739
307.952 500.323 92.7199
307.928 500.326 92.266
307.905 500.329 91.812
307.881 500.331 91.3581
307.857 500.334 90.9041
307.834 500.337 90.4501
307.81 500.34 89.9962
307.787 500.343 89.5422
307.763 500.345 89.0883
307.739 500.348 88.6343
307.716 500.351 88.1803
307.692 500.354 87.7264
307.668 500.357 87.2724
307.645 500.359 86.8185
307.621 500.362 86.3645
307.598 500.365 85.9106
307.574 500.368 85.4566
307.55 500.371 85.0026
307.527 500.373 84.5487
307.503 500.376 84.0947
307.479 500.379 83.6408
307.456 500.382 83.1868
307.432 500.385 82.7329
307.409 500.387 82.2789
307.385 500.39 81.8249
307.361 500.393 81.371
307.338 500.396 80.917
307.314 500.399 80.4631
307.29 500.401 80.0091
309.127 499.726 116.326
309.103 499.729 115.872
309.08 499.731 115.418
309.056 499.734 114.964
309.032 499.737 114.51
309.009 499.74 114.056
308.985 499.743 113.602
308.962 499.745 113.148
308.938 499.748 112.694
308.914 499.751 112.24
308.891 499.754 111.786
308.867 499.757 111.332
308.843 499.759 110.878
308.82 499.762 110.424
308.796 499.765 109.97
308.773 499.768 109.516
308.749 499.771 109.062
308.725 499.773 108.608
308.702 499.776 108.155
308.678 499.779 107.701
308.654 499.782 107.247
308.631 499.785 106.793
308.607 499.787 106.339
308.584 499.79 105.885
308.56 499.793 105.431
308.536 499.796 104.977
308.513 499.799 104.523
308.489 499.801 104.069
308.465 499.804 103.615
308.442 499.807 103.161
308.418 499.81 102.707
308.395 499.813 102.253
308.371 499.815 101.799
308.347 499.818 101.345
308.324 499.821 100.891
308.3 499.824 100.437
308.276 499.827 99.9833
308.253 499.829 99.5293
308.229 499.832 99.0753
308.205 499.835 98.6214
308.182 499.838 98.1674
308.158 499.841 97.7135
308.135 499.843 97.2595
308.111 499.846 96.8055
308.087 499.849 96.3516
308.064 499.852 95.8976
308.04 499.855 95.4437
308.016 499.857 94.9897
307.993 499.86 94.5358
307.969 499.863 94.0818
307.946 499.866 93.6278
307.922 499.869 93.1739
307.898 499.871 92.7199
307.875 499.874 92.266
307.851 499.877 91.812
307.827 499.88 91.3581
307.804 499.883 90.9041
307.78 499.885 90.4501
307.757 499.888 89.9962
307.733 499.891 89.5422
307.709 499.894 89.0883
307.686 499.897 88.6343
307.662 499.899 88.1803
307.638 499.902 87.7264
307.615 499.905 87.2724
307.591 499.908 86.8185
307.568 499.911 86.3645
307.544 499.914 85.9106
307.52 499.916 85.4566
307.497 499.919 85.0026
307.473 499.922 84.5487
307.449 499.925 84.0947
307.426 499.928 83.6408
307.402 499.93 83.1868
307.379 499.933 82.7329
307.355 499.936 82.2789
307.331 499.939 81.8249
307.308 499.942 81.371
307.284 499.944 80.917
307.26 499.947 80.4631
307.237 499.95 80.0091
309.097 499.272 116.78
309.073 499.274 116.326
309.05 499.277 115.872
309.026 499.28 115.418
309.002 499.283 114.964
308.979 499.286 114.51
308.955 499.288 114.056
308.932 499.291 113.602
308.908 499.294 113.148
308.884 499.297 112.694
308.861 499.3 112.24
308.837 499.302 111.786
308.813 499.305 111.332
308.79 499.308 110.878
308.766 499.311 110.424
308.743 499.314 109.97
308.719 499.316 109.516
308.695 499.319 109.062
308.672 499.322 108.608
308.648 499.325 108.155
308.624 499.328 107.701
308.601 499.33 107.247
308.577 499.333 106.793
308.554 499.336 106.339
308.53 499.339 105.885
308.506 499.342 105.431
308.483 499.344 104.977
308.459 499.347 104.523
308.435 499.35 104.069
308.412 499.353 103.615
308.388 499.356 103.161
308.365 499.358 102.707
308.341 499.361 102.253
308.317 499.364 101.799
308.294 499.367 101.345
308.27 499.37 100.891
308.246 499.372 100.437
308.223 499.375 99.9833
308.199 499.378 99.5293
308.176 499.381 99.0753
308.152 499.384 98.6214
308.128 499.386 98.1674
308.105 499.389 97.7135
308.081 499.392 97.2595
308.057 499.395 96.8055
308.034 499.398 96.3516
308.01 499.4 95.8976
307.987 499.403 95.4437
307.963 499.406 94.9897
307.939 499.409 94.5358
307.916 499.412 94.0818
307.892 499.414 93.6278
307.868 499.417 93.1739
307.845 499.42 92.7199
307.821 499.423 92.266
307.798 499.426 91.812
307.774 499.428 91.3581
307.75 499.431 90.9041
307.727 499.434 90.4501
307.703 499.437 89.9962
307.679 499.44 89.5422
307.656 499.442 89.0883
307.632 499.445 88.6343
307.609 499.448 88.1803
307.585 499.451 87.7264
307.561 499.454 87.2724
307.538 499.456 86.8185
307.514 499.459 86.3645
