-0.0936933979392051700000000   0.0124896001070737840000000   0.2132969945669174200000000
-0.0707259029150009160000000   0.0214871000498533250000000   0.2139279991388320900000000
-0.0465949997305870060000000   0.0270384997129440310000000   0.2145580053329467800000000
-0.0217726007103919980000000   0.0285082999616861340000000   0.2151869982481002800000000
 0.0030472299549728632000000   0.0257623996585607530000000   0.2158149927854538000000000
 0.0502040982246398930000000   0.0088287899270653725000000   0.2170660048723220800000000
 0.0272138994187116620000000   0.0190650001168251040000000   0.2164400070905685400000000
 0.0718555971980094910000000  -0.0042002401314675808000000   0.2176900058984756500000000
 0.0923829004168510440000000  -0.0190776009112596510000000   0.2183150053024292000000000
 0.1109339967370033300000000  -0.0354809984564781190000000   0.2189410030841827400000000
-0.1300130039453506500000000  -0.0171849001199007030000000   0.2441959977149963400000000
-0.1119619980454444900000000   0.0000889353977981954810000   0.2455780059099197400000000
-0.0880839973688125610000000   0.0118969995528459550000000   0.2469670027494430500000000
-0.0625713989138603210000000   0.0201318003237247470000000   0.2483559995889663700000000
-0.0358351990580558780000000   0.0239415001124143600000000   0.2497439980506897000000000
-0.0086238496005535126000000   0.0230740997940301900000000   0.2511349916458129900000000
 0.0183112993836402890000000   0.0177660994231700900000000   0.2525239884853363000000000
 0.0443016998469829560000000   0.0083070099353790283000000   0.2539129853248596200000000
 0.0690224990248680110000000  -0.0045924200676381588000000   0.2552990019321441700000000
 0.0925567969679832460000000  -0.0199193004518747330000000   0.2566829919815063500000000
 0.1141669973731041000000000  -0.0374534986913204190000000   0.2580400109291076700000000
-0.1479669958353042600000000  -0.0315554998815059660000000   0.2761889994144439700000000
-0.1278100013732910200000000  -0.0130206001922488210000000   0.2782520055770874000000000
-0.1030410006642341600000000   0.0008959289989434182600000   0.2803390026092529300000000
-0.0764660015702247620000000   0.0116697996854782100000000   0.2824349999427795400000000
-0.0482736006379127500000000   0.0183822996914386750000000   0.2845369875431060800000000
-0.0191079992800951000000000   0.0202929992228746410000000   0.2866429984569549600000000
 0.0102065997198224070000000   0.0169910993427038190000000   0.2887549996376037600000000
 0.0388159006834030150000000   0.0087996898218989372000000   0.2908749878406524700000000
 0.0662482976913452150000000  -0.0033355900086462498000000   0.2929950058460235600000000
 0.0924768000841140750000000  -0.0183517001569271090000000   0.2951120138168335000000000
 0.1165800020098686200000000  -0.0360304005444049840000000   0.2972050011157989500000000
-0.1626559942960739100000000  -0.0467314012348651890000000   0.3094249963760376000000000
-0.1404349952936172500000000  -0.0272217001765966420000000   0.3120389878749847400000000
-0.1145979985594749500000000  -0.0115377996116876600000000   0.3146870136260986300000000
-0.0869211032986640930000000   0.0013834000565111637000000   0.3173489868640899700000000
-0.0576223991811275480000000   0.0111276004463434220000000   0.3200100064277648900000000
-0.0271182991564273830000000   0.0168181993067264560000000   0.3226659893989563000000000
 0.0040770499035716057000000   0.0174595005810260770000000   0.3253329992294311500000000
 0.0350463986396789550000000   0.0124131003394722940000000   0.3280079960823059100000000
 0.0648043975234031680000000   0.0018884199671447277000000   0.3306829929351806600000000
 0.0929670035839080810000000  -0.0126373004168272020000000   0.3333539962768554700000000
 0.1186790019273757900000000  -0.0303507000207901000000000   0.3360089957714080800000000
-0.1708849966526031500000000  -0.0607326999306678770000000   0.3452979922294616700000000
-0.1476020067930221600000000  -0.0401098988950252530000000   0.3479279875755310100000000
-0.1208849996328353900000000  -0.0232538003474473950000000   0.3505620062351226800000000
-0.0924063026905059810000000  -0.0091207101941108704000000   0.3531909883022308300000000
-0.0625720992684364320000000   0.0023125100415199995000000   0.3558109998703002900000000
-0.0316514000296592710000000   0.0106261000037193300000000   0.3584240078926086400000000
 0.0000781623020884580910000   0.0152484998106956480000000   0.3610320091247558600000000
 0.0321777984499931340000000   0.0155571000650525090000000   0.3636350035667419400000000
 0.0639759972691535950000000   0.0108478004112839700000000   0.3662379980087280300000000
 0.0944565013051033020000000   0.0009115170105360448400000   0.3688330054283142100000000
 0.1216140016913414000000000  -0.0139690004289150240000000   0.3713920116424560500000000
-0.1739760041236877400000000  -0.0725378990173339840000000   0.3827320039272308300000000
-0.1504260003566741900000000  -0.0512323006987571720000000   0.3849320113658905000000000
-0.1235990002751350400000000  -0.0336557999253273010000000   0.3871420025825500500000000
-0.0952633991837501530000000  -0.0185972992330789570000000   0.3893580138683319100000000
-0.0657833963632583620000000  -0.0058083399198949337000000   0.3915779888629913300000000
-0.0353197008371353150000000   0.0045185699127614498000000   0.3938069939613342300000000
-0.0039937198162078857000000   0.0120142996311187740000000   0.3960449993610382100000000
 0.0279938001185655590000000   0.0163180995732545850000000   0.3982959985733032200000000
 0.0603156983852386470000000   0.0170827992260456090000000   0.4005590081214904800000000
 0.0924903005361557010000000   0.0140145998448133470000000   0.4028219878673553500000000
 0.1232459992170333900000000   0.0061495900154113770000000   0.4050729870796203600000000
-0.1742130070924758900000000  -0.0831035971641540530000000   0.4207040071487426800000000
-0.1505780071020126300000000  -0.0615015998482704160000000   0.4227809906005859400000000
-0.1238529980182647700000000  -0.0432667993009090420000000   0.4248700141906738300000000
-0.0957268029451370240000000  -0.0272156000137329100000000   0.4269640147686004600000000
-0.0665550008416175840000000  -0.0130233997479081150000000   0.4290589988231658900000000
-0.0364784002304077150000000  -0.0007618250092491507500000   0.4311560094356536900000000
-0.0055595701560378075000000   0.0092135798186063766000000   0.4332500100135803200000000
 0.0260965991765260700000000   0.0165359005331993100000000   0.4353399872779846200000000
 0.0582666993141174320000000   0.0209340993314981460000000   0.4374310076236724900000000
 0.0906822979450225830000000   0.0224620997905731200000000   0.4395210146903991700000000
 0.1229360029101371800000000   0.0205928999930620190000000   0.4415799975395202600000000
-0.1703680008649826000000000  -0.0920344963669776920000000   0.4588730037212371800000000
-0.1472440063953399700000000  -0.0697894021868705750000000   0.4608219861984252900000000
-0.1210009977221489000000000  -0.0504738017916679380000000   0.4627850055694580100000000
-0.0934341028332710270000000  -0.0330176986753940580000000   0.4647519886493682900000000
-0.0648984983563423160000000  -0.0170983001589775090000000   0.4667179882526397700000000
-0.0354671999812126160000000  -0.0028233199845999479000000   0.4686830043792724600000000
-0.0051906798034906387000000   0.0095633100718259811000000   0.4706420004367828400000000
 0.0259074997156858440000000   0.0197356007993221280000000   0.4725989997386932400000000
 0.0577148012816905980000000   0.0273560006171464920000000   0.4745549857616424600000000
 0.0900038033723831180000000   0.0322844013571739200000000   0.4765079915523529100000000
 0.1224669963121414200000000   0.0341481007635593410000000   0.4784390032291412400000000
-0.1622830033302307100000000  -0.0983346998691558840000000   0.4968949854373931900000000
-0.1397410035133361800000000  -0.0752073004841804500000000   0.4986479878425598100000000
-0.1142800003290176400000000  -0.0546167008578777310000000   0.5004130005836486800000000
-0.0876429975032806400000000  -0.0355591997504234310000000   0.5021799802780151400000000
-0.0600972995162010190000000  -0.0178229995071887970000000   0.5039489865303039600000000
-0.0316810011863708500000000  -0.0015169100370258093000000   0.5057190060615539600000000
-0.0024125899653881788000000   0.0131492996588349340000000   0.5074890255928039600000000
 0.0277142003178596500000000   0.0259118005633354190000000   0.5092560052871704100000000
 0.0586434006690979000000000   0.0364864990115165710000000   0.5110200047492981000000000
 0.0902490019798278810000000   0.0445806011557579040000000   0.5127800107002258300000000
 0.1223120018839836100000000   0.0496692992746829990000000   0.5145249962806701700000000
-0.1510549932718277000000000  -0.1019409969449043300000000   0.5344820022583007800000000
-0.1293960064649581900000000  -0.0781470015645027160000000   0.5361210107803344700000000
-0.1050809994339942900000000  -0.0565037988126277920000000   0.5377680063247680700000000
-0.0797604024410247800000000  -0.0360785983502864840000000   0.5394170284271240200000000
-0.0536133013665676120000000  -0.0167491994798183440000000   0.5410649776458740200000000
-0.0266522001475095750000000   0.0013854199787601829000000   0.5427139997482299800000000
 0.0011682199547067285000000   0.0180907007306814190000000   0.5443609952926635700000000
 0.0299276001751422880000000   0.0330553986132144930000000   0.5460069775581359900000000
 0.0596094988286495210000000   0.0459875017404556270000000   0.5476520061492919900000000
 0.0901359021663665770000000   0.0566064007580280300000000   0.5492910146713256800000000
 0.1215550005435943600000000   0.0644652023911476140000000   0.5509120225906372100000000
-0.1385300010442733800000000  -0.1040429994463920600000000   0.5717750191688537600000000
-0.1179590001702308700000000  -0.0798048973083496090000000   0.5733320116996765100000000
-0.0948769003152847290000000  -0.0574171990156173710000000   0.5748959779739379900000000
-0.0709884017705917360000000  -0.0359040014445781710000000   0.5764610171318054200000000
-0.0464022010564804080000000  -0.0152025995776057240000000   0.5780280232429504400000000
-0.0210514999926090240000000   0.0045579001307487488000000   0.5795950293540954600000000
 0.0051417900249361992000000   0.0231464002281427380000000   0.5811600089073181200000000
 0.0323304012417793270000000   0.0402336008846759800000000   0.5827230215072631800000000
 0.0605911016464233400000000   0.0554501004517078400000000   0.5842859745025634800000000
 0.0898841023445129390000000   0.0685043036937713620000000   0.5858470201492309600000000
 0.1202860027551651000000000   0.0789946019649505620000000   0.5873870253562927200000000
-0.1255940049886703500000000  -0.1052670031785965000000000   0.6089959740638732900000000
-0.1060689985752105700000000  -0.0804067030549049380000000   0.6104059815406799300000000
-0.0841334983706474300000000  -0.0571217015385627750000000   0.6118170022964477500000000
-0.0614868998527526860000000  -0.0345170013606548310000000   0.6132289767265319800000000
-0.0382186993956565860000000  -0.0125372996553778650000000   0.6146410107612609900000000
-0.0142817003652453420000000   0.0087327696382999420000000   0.6160510182380676300000000
 0.0104072000831365590000000   0.0291259996592998500000000   0.6174600124359130900000000
 0.0359914004802703860000000   0.0483887009322643280000000   0.6188669800758361800000000
 0.0626107975840568540000000   0.0661353990435600280000000   0.6202729940414428700000000
 0.0902798026800155640000000   0.0820093974471092220000000   0.6216760277748107900000000
 0.1186110004782676700000000   0.0953510999679565430000000   0.6230630278587341300000000
-0.1123960018157959000000000  -0.1054010018706321700000000   0.6461229920387268100000000
-0.0938967987895011900000000  -0.0797370970249176030000000   0.6473379731178283700000000
-0.0730635002255439760000000  -0.0554484017193317410000000   0.6485570073127746600000000
-0.0516057983040809630000000  -0.0317343994975090030000000   0.6497769951820373500000000
-0.0296245999634265900000000  -0.0085335401818156242000000   0.6509969830513000500000000
-0.0070948097854852676000000   0.0141193000599741940000000   0.6522189974784851100000000
 0.0160220004618167880000000   0.0361220017075538640000000   0.6534399986267089800000000
 0.0398474000394344330000000   0.0573175996541976930000000   0.6546609997749328600000000
 0.0645897015929222110000000   0.0773771032691001890000000   0.6558799743652343800000000
 0.0903593003749847410000000   0.0959947034716606140000000   0.6570960283279418900000000
 0.1170020028948783900000000   0.1126269996166229200000000   0.6583080291748046900000000
-0.0990457981824874880000000  -0.1041650027036666900000000   0.6831730008125305200000000
-0.0816890969872474670000000  -0.0778708979487419130000000   0.6842319965362548800000000
-0.0620811991393566130000000  -0.0527117997407913210000000   0.6852959990501403800000000
-0.0419122986495494840000000  -0.0279881004244089130000000   0.6863620281219482400000000
-0.0213127993047237400000000  -0.0036096600815653801000000   0.6874279975891113300000000
-0.0002620040031615644700000   0.0203980002552270890000000   0.6884949803352356000000000
 0.0212855990976095200000000   0.0439503006637096410000000   0.6895599961280822800000000
 0.0434646010398864750000000   0.0669142976403236390000000   0.6906229853630065900000000
 0.0665429979562759400000000   0.0889711976051330570000000   0.6916829943656921400000000
 0.0906492993235588070000000   0.1098809987306594800000000   0.6927400231361389200000000
 0.1157760024070739700000000   0.1294489949941635100000000   0.6937860250473022500000000
-0.0856492966413497920000000  -0.1012699976563453700000000   0.7201160192489624000000000
-0.0693086981773376460000000  -0.0742674991488456730000000   0.7210360169410705600000000
-0.0508391000330448150000000  -0.0481926985085010530000000   0.7219560146331787100000000
-0.0319022014737129210000000  -0.0224482994526624680000000   0.7228760123252868700000000
-0.0126545000821352010000000   0.0030748900026082993000000   0.7237960100173950200000000
 0.0069406400434672832000000   0.0283406004309654240000000   0.7247160077095031700000000
 0.0269552990794181820000000   0.0532678999006748200000000   0.7256360054016113300000000
 0.0475313998758792880000000   0.0777375996112823490000000   0.7265549898147583000000000
 0.0689439997076988220000000   0.1014750003814697300000000   0.7274739742279052700000000
 0.0912839025259017940000000   0.1243249997496604900000000   0.7283920049667358400000000
 0.1145310029387474100000000   0.1461810022592544600000000   0.7293050289154052700000000
-0.0724421963095664980000000  -0.0963407978415489200000000   0.7568960189819335900000000
-0.0569841004908084870000000  -0.0686954036355018620000000   0.7576569914817810100000000
-0.0396619997918605800000000  -0.0417826995253562930000000   0.7584180235862731900000000
-0.0219391006976366040000000  -0.0151242995634675030000000   0.7591779828071594200000000
-0.0039685098454356194000000   0.0113797998055815700000000   0.7599380016326904300000000
 0.0142812998965382580000000   0.0377013012766838070000000   0.7606970071792602500000000
 0.0328845009207725520000000   0.0637706965208053590000000   0.7614570260047912600000000
 0.0519100017845630650000000   0.0895373001694679260000000   0.7622159719467163100000000
 0.0714785009622573850000000   0.1148869991302490200000000   0.7629749774932861300000000
 0.0917150005698204040000000   0.1396760046482086200000000   0.7637320160865783700000000
 0.1127320006489753700000000   0.1635410040616989100000000   0.7644990086555481000000000
-0.0594444014132022860000000  -0.0891437977552413940000000   0.7933809757232666000000000
-0.0449444018304347990000000  -0.0609258003532886510000000   0.7939670085906982400000000
-0.0287133995443582530000000  -0.0332609005272388460000000   0.7945489883422851600000000
-0.0120965996757149700000000  -0.0058268201537430286000000   0.7951300144195556600000000
 0.0047763600014150143000000   0.0214549992233514790000000   0.7957109808921814000000000
 0.0392378009855747220000000   0.0755719989538192750000000   0.7968729734420776400000000
 0.0218928996473550800000000   0.0485891997814178470000000   0.7962920069694519000000000
 0.0567189007997512820000000   0.1024719998240470900000000   0.7974529862403869600000000
 0.0742714032530784610000000   0.1293309926986694300000000   0.7980329990386962900000000
 0.0921607986092567440000000   0.1559640020132064800000000   0.7986130118370056200000000
 0.1110429987311363200000000   0.1818870007991790800000000   0.7991909980773925800000000
-0.0326566994190216060000000  -0.0507084988057613370000000   0.8296859860420227100000000
-0.0465366989374160770000000  -0.0793816968798637390000000   0.8292919993400573700000000
-0.0173598006367683410000000  -0.0224817991256713870000000   0.8300830125808715800000000
 0.0142225995659828190000000   0.0334507003426551820000000   0.8308740258216857900000000
-0.0016716499812901020000000   0.0055339699611067772000000   0.8304790258407592800000000
 0.0462484993040561680000000   0.0891560018062591550000000   0.8316649794578552200000000
 0.0302256997674703600000000   0.0613042004406452180000000   0.8312680125236511200000000
 0.0777833983302116390000000   0.1451810002326965300000000   0.8324580192565918000000000
 0.0621377006173133850000000   0.1170969977974891700000000   0.8320620059967041000000000
 0.0932568982243537900000000   0.1733649969100952100000000   0.8328559994697570800000000
 0.1092780008912086500000000   0.2013580054044723500000000   0.8332589864730835000000000
 0.0095944702625274658000000   0.0184461008757352830000000   0.8652740120887756300000000
-0.0052950298413634300000000  -0.0102057997137308120000000   0.8650760054588317900000000
-0.0199286006391048430000000  -0.0389999002218246460000000   0.8648779988288879400000000
-0.0331397987902164460000000  -0.0683168992400169370000000   0.8646820187568664600000000
 0.0528842993080616000000000   0.1050420030951499900000000   0.8658649921417236300000000
 0.0387438982725143430000000   0.0760480985045433040000000   0.8656679987907409700000000
 0.0243050009012222290000000   0.0471795015037059780000000   0.8654710054397583000000000
 0.1057519987225532500000000   0.2217909991741180400000000   0.8666279911994934100000000
 0.0932217985391616820000000   0.1927960067987442000000000   0.8664500117301940900000000
 0.0804196000099182130000000   0.1633069962263107300000000   0.8662570118904113800000000
 0.0667757019400596620000000   0.1341329962015152000000000   0.8660609722137451200000000
 0.1019259989261627200000000   0.2421589940786361700000000   0.8999999761581420900000000
 0.0920720025897026060000000   0.2112890034914016700000000   0.8999999761581420900000000
 0.0813917964696884160000000   0.1807069927453994800000000   0.8999999761581420900000000
 0.0699258968234062190000000   0.1504060029983520500000000   0.8999999761581420900000000
 0.0580372996628284450000000   0.1202659979462623600000000   0.8999999761581420900000000
 0.0460787005722522740000000   0.0901546999812126160000000   0.8999999761581420900000000
 0.0336587987840175630000000   0.0602306984364986420000000   0.8999999761581420900000000
 0.0205109007656574250000000   0.0306193996220827100000000   0.8999999761581420900000000
 0.0065256301313638687000000   0.0013986900448799133000000   0.8999999761581420900000000
-0.0074403397738933563000000  -0.0278321001678705220000000   0.8999999761581420900000000
-0.0193266998976469040000000  -0.0576323010027408600000000   0.8999999761581420900000000
 0.1089010015130043000000000  -0.0307267997413873670000000   0.1800000071525573700000000
 0.1109339967370033300000000  -0.0354808010160923000000000   0.2189390063285827600000000
 0.1141669973731041000000000  -0.0374533012509346010000000   0.2580400109291076700000000
 0.1165790036320686300000000  -0.0360250994563102720000000   0.2972050011157989500000000
 0.1186790019273757900000000  -0.0303507000207901000000000   0.3360089957714080800000000
 0.1216140016913414000000000  -0.0139744998887181280000000   0.3713839948177337600000000
 0.1232469975948333700000000   0.0061526801437139511000000   0.4050759971141815200000000
 0.1229360029101371800000000   0.0205943007022142410000000   0.4415799975395202600000000
 0.1224680021405220000000000   0.0341437011957168580000000   0.4784330129623413100000000
 0.1223139986395835900000000   0.0496683008968830110000000   0.5145239830017089800000000
 0.1215540021657943700000000   0.0644640997052192690000000   0.5509089827537536600000000
 0.1202860027551651000000000   0.0789936035871505740000000   0.5873849987983703600000000
 0.1186110004782676700000000   0.0953529998660087590000000   0.6230679750442504900000000
 0.1170020028948783900000000   0.1126269996166229200000000   0.6583070158958435100000000
 0.1157760024070739700000000   0.1294479966163635300000000   0.6937850117683410600000000
 0.1145320013165473900000000   0.1461810022592544600000000   0.7293050289154052700000000
 0.1127320006489753700000000   0.1635410040616989100000000   0.7644990086555481000000000
 0.1110450029373168900000000   0.1818879991769790600000000   0.7991909980773925800000000
 0.1092780008912086500000000   0.2013580054044723500000000   0.8332589864730835000000000
 0.1057519987225532500000000   0.2217939943075180100000000   0.8666269779205322300000000
 0.1019259989261627200000000   0.2421589940786361700000000   0.8999999761581420900000000
 0.0912586972117424010000000  -0.0200658999383449550000000   0.1800000071525573700000000
 0.0907671004533767700000000  -0.0240186993032693860000000   0.2183070033788681000000000
 0.0913506969809532170000000  -0.0254493001848459240000000   0.2566759884357452400000000
 0.0912697985768318180000000  -0.0240899007767438890000000   0.2950940132141113300000000
 0.0916599035263061520000000  -0.0184214003384113310000000   0.3333280086517334000000000
 0.0925763025879859920000000  -0.0041846400126814842000000   0.3688000142574310300000000
 0.0921185985207557680000000   0.0084821302443742752000000   0.4028190076351165800000000
 0.0918331965804100040000000   0.0168292000889778140000000   0.4395000040531158400000000
 0.0915279984474182130000000   0.0267117992043495180000000   0.4764850139617919900000000
 0.0921854004263877870000000   0.0393205992877483370000000   0.5127630233764648400000000
 0.0928187966346740720000000   0.0518288984894752500000000   0.5492690205574035600000000
 0.0930237993597984310000000   0.0641120001673698430000000   0.5858110189437866200000000
 0.0925164967775344850000000   0.0772811993956565860000000   0.6216580271720886200000000
 0.0930403023958206180000000   0.0916002020239830020000000   0.6570940017700195300000000
 0.0942472964525222780000000   0.1064020022749900800000000   0.6927220225334167500000000
 0.0950623974204063420000000   0.1212370023131370500000000   0.7283899784088134800000000
 0.0954227969050407410000000   0.1366949975490570100000000   0.7637349963188171400000000
 0.0960623025894165040000000   0.1537470072507858300000000   0.7986019849777221700000000
 0.0967544987797737120000000   0.1720850020647049000000000   0.8328570127487182600000000
 0.0952240973711013790000000   0.1907230019569397000000000   0.8664060235023498500000000
 0.0938939973711967470000000   0.2109510004520416300000000   0.8999999761581420900000000
 0.0725815966725349430000000  -0.0097131095826625824000000   0.1800000071525573700000000
 0.0697202011942863460000000  -0.0130893997848033910000000   0.2176800072193145800000000
 0.0675508975982666020000000  -0.0141283003613352780000000   0.2552959918975830100000000
 0.0648911967873573300000000  -0.0129685001447796820000000   0.2929770052433013900000000
 0.0632750019431114200000000  -0.0075785401277244091000000   0.3306539952754974400000000
 0.0623179003596305850000000   0.0016271700151264668000000   0.3662109971046447800000000
 0.0607029013335704800000000   0.0075538898818194866000000   0.4005590081214904800000000
 0.0603130012750625610000000   0.0116764996200799940000000   0.4374159872531890900000000
 0.0603974014520645140000000   0.0185928996652364730000000   0.4745320081710815400000000
 0.0618494004011154170000000   0.0284382998943328860000000   0.5110020041465759300000000
 0.0636228024959564210000000   0.0386929996311664580000000   0.5476289987564086900000000
 0.0652652010321617130000000   0.0487832985818386080000000   0.5842429995536804200000000
 0.0665747970342636110000000   0.0592399984598159790000000   0.6202530264854431200000000
 0.0689513981342315670000000   0.0708442032337188720000000   0.6558840274810791000000000
 0.0720724016427993770000000   0.0836033970117568970000000   0.6916620135307312000000000
 0.0747388973832130430000000   0.0966622009873390200000000   0.7274789810180664100000000
 0.0771725997328758240000000   0.1104359999299049400000000   0.7629740238189697300000000
 0.0799712017178535460000000   0.1259620040655136100000000   0.7980200052261352500000000
 0.0828004032373428340000000   0.1430760025978088400000000   0.8324630260467529300000000
 0.0834818035364151000000000   0.1605869978666305500000000   0.8662080168724060100000000
 0.0842225030064582820000000   0.1799599975347518900000000   0.8999999761581420900000000
 0.0529665015637874600000000  -0.0012686899863183498000000   0.1800000071525573700000000
 0.0478128008544445040000000  -0.0042836698703467846000000   0.2170519977807998700000000
 0.0429043993353843690000000  -0.0053143599070608616000000   0.2539190053939819300000000
 0.0376897007226943970000000  -0.0047408798709511757000000   0.2908590137958526600000000
 0.0337407998740673070000000  -0.0008048620074987411500000   0.3279770016670227100000000
 0.0314760990440845490000000   0.0025291100610047579000000   0.3636130094528198200000000
 0.0295193996280431750000000   0.0036279300693422556000000   0.3983049988746643100000000
 0.0291143991053104400000000   0.0047935601323843002000000   0.4353280067443847700000000
 0.0296628996729850770000000   0.0090981600806117058000000   0.4725770056247711200000000
 0.0319341011345386510000000   0.0163681004196405410000000   0.5092390179634094200000000
 0.0348532982170581820000000   0.0244752001017332080000000   0.5459830164909362800000000
 0.0379692018032073970000000   0.0324760004878044130000000   0.5826799869537353500000000
 0.0410855002701282500000000   0.0405510999262332920000000   0.6188430190086364700000000
 0.0451913997530937190000000   0.0497935004532337190000000   0.6546639800071716300000000
 0.0500391982495784760000000   0.0606774985790252690000000   0.6905980110168457000000000
 0.0543688982725143430000000   0.0721371024847030640000000   0.7265620231628418000000000
 0.0585713982582092290000000   0.0844623968005180360000000   0.7622119784355163600000000
 0.0632366016507148740000000   0.0985795035958290100000000   0.7974399924278259300000000
 0.0679967030882835390000000   0.1144810020923614500000000   0.8320630192756652800000000
 0.0710334032773971560000000   0.1308269947767257700000000   0.8660179972648620600000000
 0.0739888027310371400000000   0.1491529941558837900000000   0.8999999761581420900000000
 0.0326295010745525360000000   0.0052539501339197159000000   0.1800000071525573700000000
 0.0252379998564720150000000   0.0023035199847072363000000   0.2164240032434463500000000
 0.0176417995244264600000000   0.0007845810032449662700000   0.2525390088558197000000000
 0.0099814096465706825000000   0.0003978640015702694700000   0.2887369990348815900000000
 0.0036414000205695629000000   0.0012786500155925751000000   0.3253009915351867700000000
 0.0007624119753018021600000  -0.0002544019953347742600000   0.3610070049762725800000000
-0.0013378099538385868000000  -0.0022932901047170162000000   0.3960610032081604000000000
-0.0017165299504995346000000  -0.0035189299378544092000000   0.4332369863986969000000000
-0.0006293440237641334500000  -0.0017152000218629837000000   0.4706209897994995100000000
 0.0025010700337588787000000   0.0030966498889029026000000   0.5074740052223205600000000
 0.0066069099120795727000000   0.0091438703238964081000000   0.5443379878997802700000000
 0.0112137999385595320000000   0.0151958996430039410000000   0.5811200141906738300000000
 0.0160441994667053220000000   0.0212232992053031920000000   0.6174330115318298300000000
 0.0217409003525972370000000   0.0284448992460966110000000   0.6534439921379089400000000
 0.0281587000936269760000000   0.0376100018620491030000000   0.6895350217819213900000000
 0.0340253002941608430000000   0.0475918017327785490000000   0.7256439924240112300000000
 0.0398286990821361540000000   0.0586040988564491270000000   0.7614510059356689500000000
 0.0460853017866611480000000   0.0714662000536918640000000   0.7968609929084777800000000
 0.0525627993047237400000000   0.0862132012844085690000000   0.8316670060157775900000000
 0.0577666983008384700000000   0.1014640033245086700000000   0.8658279776573181200000000
 0.0629350990056991580000000   0.1186290010809898400000000   0.8999999761581420900000000
 0.0117848999798297880000000   0.0099016502499580383000000   0.1800000071525573700000000
 0.0022122100926935673000000   0.0066215000115334988000000   0.2157970070838928200000000
-0.0079394401982426643000000   0.0040662600658833981000000   0.2511540055274963400000000
-0.0178992003202438350000000   0.0019080799538642168000000   0.2866240143775939900000000
-0.0262039005756378170000000  -0.0008161870064213872000000   0.3226259946823120100000000
-0.0295577999204397200000000  -0.0054944301955401897000000   0.3583999872207641600000000
-0.0318094007670879360000000  -0.0098547795787453651000000   0.3938249945640564000000000
-0.0320602990686893460000000  -0.0133421998471021650000000   0.4311439990997314500000000
-0.0303888004273176190000000  -0.0138894002884626390000000   0.4686639904975891100000000
-0.0263804998248815540000000  -0.0113631999120116230000000   0.5057089924812316900000000
-0.0210477001965045930000000  -0.0072784097865223885000000   0.5426930189132690400000000
-0.0149600002914667130000000  -0.0030084999743849039000000   0.5795609951019287100000000
-0.0085476404055953026000000   0.0013098400086164474000000   0.6160230040550231900000000
-0.0014220200246199965000000   0.0068326601758599281000000   0.6522229909896850600000000
 0.0064108599908649921000000   0.0144279003143310550000000   0.6884710192680358900000000
 0.0137456003576517110000000   0.0230091009289026260000000   0.7247250080108642600000000
 0.0210277996957302090000000   0.0327987000346183780000000   0.7606909871101379400000000
 0.0287088993936777110000000   0.0445083007216453550000000   0.7962819933891296400000000
 0.0366889014840126040000000   0.0581978000700473790000000   0.8312709927558898900000000
 0.0437937006354331970000000   0.0724537000060081480000000   0.8656370043754577600000000
 0.0510004982352256770000000   0.0884385034441947940000000   0.8999999761581420900000000
-0.0093669202178716660000000   0.0128760002553462980000000   0.1800000071525573700000000
-0.0210330002009868620000000   0.0087725399062037468000000   0.2151709944009780900000000
-0.0335271991789340970000000   0.0046390900388360023000000   0.2497629970312118500000000
-0.0454864017665386200000000  -0.0000951710026129148900000   0.2845169901847839400000000
-0.0553188994526863100000000  -0.0060741198249161243000000   0.3199529945850372300000000
-0.0593558996915817260000000  -0.0128892995417118070000000   0.3557890057563781700000000
-0.0617320016026496890000000  -0.0191962998360395430000000   0.3915939927101135300000000
-0.0617945007979869840000000  -0.0247901994735002520000000   0.4290510118007659900000000
-0.0595543012022972110000000  -0.0274145994335412980000000   0.4667040109634399400000000
-0.0546821989119052890000000  -0.0269572008401155470000000   0.5039409995079040500000000
-0.0481063984334468840000000  -0.0247095990926027300000000   0.5410490036010742200000000
-0.0405758991837501530000000  -0.0220373999327421190000000   0.5780010223388671900000000
-0.0327017009258270260000000  -0.0191607996821403500000000   0.6146150231361389200000000
-0.0242672991007566450000000  -0.0150736002251505850000000   0.6510009765625000000000000
-0.0151473004370927810000000  -0.0089215897023677826000000   0.6874079704284668000000000
-0.0064192600548267365000000  -0.0016587800346314907000000   0.7238039970397949200000000
 0.0022211200557649136000000   0.0070033399388194084000000   0.7599300146102905300000000
 0.0112065002322196960000000   0.0176426004618406300000000   0.7957029938697814900000000
 0.0205092001706361770000000   0.0303584001958370210000000   0.8308770060539245600000000
 0.0292850993573665620000000   0.0437265001237392430000000   0.8654469847679138200000000
 0.0383148007094860080000000   0.0585539005696773530000000   0.8999999761581420900000000
-0.0306723006069660190000000   0.0144026996567845340000000   0.1800000071525573700000000
-0.0442832000553607940000000   0.0088892104104161263000000   0.2145439982414245600000000
-0.0587950013577938080000000   0.0024971000384539366000000   0.2483669966459274300000000
-0.0723828971385955810000000  -0.0051343599334359169000000   0.2824159860610961900000000
-0.0834750011563301090000000  -0.0138374995440244670000000   0.3172940015792846700000000
-0.0884888991713523860000000  -0.0223181005567312240000000   0.3531750142574310300000000
-0.0909179970622062680000000  -0.0304342992603778840000000   0.3893660008907318100000000
-0.0908406972885131840000000  -0.0378060005605220790000000   0.4269570112228393600000000
-0.0881123021245002750000000  -0.0421761982142925260000000   0.4647400081157684300000000
-0.0824031010270118710000000  -0.0435827001929283140000000   0.5021730065345764200000000
-0.0745875984430313110000000  -0.0430338010191917420000000   0.5394030213356018100000000
-0.0656687021255493160000000  -0.0417901016771793370000000   0.5764409899711608900000000
-0.0564244985580444340000000  -0.0401473008096218110000000   0.6132079958915710400000000
-0.0467596016824245450000000  -0.0372955985367298130000000   0.6497790217399597200000000
-0.0364672988653182980000000  -0.0324769988656044010000000   0.6863470077514648400000000
-0.0264439005404710770000000  -0.0264347996562719350000000   0.7228829860687255900000000
-0.0165020003914833070000000  -0.0188427008688449860000000   0.7591710090637207000000000
-0.0063451798632740974000000  -0.0091746095567941666000000   0.7951239943504333500000000
 0.0041103698313236237000000   0.0026436599437147379000000   0.8304820060729980500000000
 0.0143235996365547180000000   0.0152636002749204640000000   0.8652570247650146500000000
 0.0248563997447490690000000   0.0290143992751836780000000   0.8999999761581420900000000
-0.0520295985043048860000000   0.0143769001588225360000000   0.1800000071525573700000000
-0.0673416033387184140000000   0.0067610801197588444000000   0.2139189988374710100000000
-0.0833714008331298830000000  -0.0026036400813609362000000   0.2469719946384429900000000
-0.0983278006315231320000000  -0.0129017997533082960000000   0.2803249955177307100000000
-0.1106330007314682000000000  -0.0237041991204023360000000   0.3146510124206543000000000
-0.1167529970407486000000000  -0.0337577983736991880000000   0.3505519926548004200000000
-0.1192229986190795900000000  -0.0435037016868591310000000   0.3871439993381500200000000
-0.1191859990358352700000000  -0.0521603003144264220000000   0.4248659908771514900000000
-0.1160819977521896400000000  -0.0579933002591133120000000   0.4627769887447357200000000
-0.1095540001988410900000000  -0.0611170008778572080000000   0.5004079937934875500000000
-0.1005019992589950600000000  -0.0621638000011444090000000   0.5377590060234069800000000
-0.0902364030480384830000000  -0.0622191987931728360000000   0.5748810172080993700000000
-0.0796872004866600040000000  -0.0616572983562946320000000   0.6118019819259643600000000
-0.0688264966011047360000000  -0.0598893985152244570000000   0.6485580205917358400000000
-0.0574602000415325160000000  -0.0563028007745742800000000   0.6852869987487793000000000
-0.0462285988032817840000000  -0.0513800010085105900000000   0.7219610214233398400000000
-0.0350823998451232910000000  -0.0447770990431308750000000   0.7584120035171508800000000
-0.0238527003675699230000000  -0.0359979011118412020000000   0.7945449948310852100000000
-0.0123944003134965900000000  -0.0249940995126962660000000   0.8300870060920715300000000
-0.0009862639708444476100000  -0.0129907000809907910000000   0.8650659918785095200000000
 0.0106669999659061430000000  -0.0001722180022625252600000   0.8999999761581420900000000
-0.0732600986957550050000000   0.0120989996939897540000000   0.1800000071525573700000000
-0.0898931026458740230000000   0.0019412699621170759000000   0.2132920026779174800000000
-0.1069480031728744500000000  -0.0104373004287481310000000   0.2455810010433197000000000
-0.1232080012559890700000000  -0.0228623002767562870000000   0.2782430052757263200000000
-0.1368039995431900000000000  -0.0353045985102653500000000   0.3120239973068237300000000
-0.1439840048551559400000000  -0.0471642985939979550000000   0.3479219973087310800000000
-0.1467210054397583000000000  -0.0580106005072593690000000   0.3849279880523681600000000
-0.1469179987907409700000000  -0.0675314962863922120000000   0.4227780103683471700000000
-0.1435270011425018300000000  -0.0747013017535209660000000   0.4608170092105865500000000
-0.1361799985170364400000000  -0.0794548988342285160000000   0.4986439943313598600000000
-0.1259050071239471400000000  -0.0820045992732048030000000   0.5361139774322509800000000
-0.1143449991941452000000000  -0.0832350030541419980000000   0.5733240246772766100000000
-0.1025360003113746600000000  -0.0836388990283012390000000   0.6103969812393188500000000
-0.0904930979013442990000000  -0.0828462019562721250000000   0.6473389863967895500000000
-0.0780920982360839840000000  -0.0804501995444297790000000   0.6842280030250549300000000
-0.0657309964299201970000000  -0.0765577033162117000000000   0.7210389971733093300000000
-0.0534717999398708340000000  -0.0708630010485649110000000   0.7576540112495422400000000
-0.0413044989109039310000000  -0.0628641024231910710000000   0.7939649820327758800000000
-0.0289893001317977910000000  -0.0526001006364822390000000   0.8296920061111450200000000
-0.0164886992424726490000000  -0.0411446988582611080000000   0.8648740053176879900000000
-0.0038073998875916004000000  -0.0292428992688655850000000   0.8999999761581420900000000
-0.0938396975398063660000000   0.0105867004022002220000000   0.1800000071525573700000000
-0.1119280010461807300000000  -0.0020339500624686480000000   0.2126619964838028000000000
-0.1300130039453506500000000  -0.0171850007027387620000000   0.2441959977149963400000000
-0.1479679942131042500000000  -0.0315553992986679080000000   0.2761889994144439700000000
-0.1626559942960739100000000  -0.0467310994863510130000000   0.3094240128993988000000000
-0.1708839982748031600000000  -0.0607312992215156560000000   0.3452939987182617200000000
-0.1739680022001266500000000  -0.0725532025098800660000000   0.3827309906482696500000000
-0.1742130070924758900000000  -0.0831032022833824160000000   0.4207029938697814900000000
-0.1703619956970214800000000  -0.0920324027538299560000000   0.4588739871978759800000000
-0.1622720062732696500000000  -0.0983273014426231380000000   0.4968940019607543900000000
-0.1510549932718277000000000  -0.1019409969449043300000000   0.5344820022583007800000000
-0.1385300010442733800000000  -0.1040429994463920600000000   0.5717750191688537600000000
-0.1255940049886703500000000  -0.1052670031785965000000000   0.6089969873428344700000000
-0.1123950034379959100000000  -0.1054010018706321700000000   0.6461259722709655800000000
-0.0990438014268875120000000  -0.1041650027036666900000000   0.6831769943237304700000000
-0.0856487005949020390000000  -0.1012699976563453700000000   0.7201189994812011700000000
-0.0724421963095664980000000  -0.0963402986526489260000000   0.7568969726562500000000000
-0.0594431981444358830000000  -0.0891434028744697570000000   0.7933840155601501500000000
-0.0465369001030921940000000  -0.0793815031647682190000000   0.8292919993400573700000000
-0.0331385992467403410000000  -0.0683175027370452880000000   0.8646820187568664600000000
-0.0193266998976469040000000  -0.0576323010027408600000000   0.8999999761581420900000000
 0.0919775962829589840000000  -0.0176935996860265730000000   0.1800000071525573700000000
 0.0915749967098236080000000  -0.0215480998158454900000000   0.2183109968900680500000000
 0.0919537991285324100000000  -0.0226843003183603290000000   0.2566789984703064000000000
 0.0736923962831497190000000  -0.0054468200542032719000000   0.1800000071525573700000000
 0.0707878991961479190000000  -0.0086448099464178085000000   0.2176849991083145100000000
 0.0918733030557632450000000  -0.0212207995355129240000000   0.2951030135154724100000000
 0.0682867020368576050000000  -0.0093603702262043953000000   0.2552979886531829800000000
 0.0543882995843887330000000   0.0050841299816966057000000   0.1800000071525573700000000
 0.0490083992481231690000000   0.0022725600283592939000000   0.2170590013265609700000000
 0.0923134982585906980000000  -0.0155293000862002370000000   0.3333410024642944300000000
 0.0655698031187057500000000  -0.0081520397216081619000000   0.2929860055446624800000000
 0.0436029992997646330000000   0.0014963300200179219000000   0.2539159953594207800000000
 0.0340401008725166320000000   0.0134648997336626050000000   0.1800000071525573700000000
 0.0262259002774953840000000   0.0106841996312141420000000   0.2164320051670074500000000
 0.0935164019465446470000000  -0.0016365599585697055000000   0.3688159883022308300000000
 0.0640396997332572940000000  -0.0028450600802898407000000   0.3306680023670196500000000
 0.0382528007030487060000000   0.0020294000860303640000000   0.2908670008182525600000000
 0.0179765000939369200000000   0.0092753199860453606000000   0.2525309920310974100000000
 0.0128065999597311020000000   0.0194057002663612370000000   0.1800000071525573700000000
 0.0026297199074178934000000   0.0161920003592967990000000   0.2158060073852539100000000
 0.0923044979572296140000000   0.0112482998520135880000000   0.4028199911117553700000000
 0.0631468966603279110000000   0.0062374598346650600000000   0.3662250041961669900000000
 0.0343936011195182800000000   0.0058041401207447052000000   0.3279919922351837200000000
 0.0100940000265836720000000   0.0086944997310638428000000   0.2887459993362426800000000
-0.0082816397771239281000000   0.0135701997205615040000000   0.2511439919471740700000000
-0.0090020298957824707000000   0.0228294003754854200000000   0.1800000071525573700000000
-0.0214028004556894300000000   0.0186404008418321610000000   0.2151789963245391800000000
 0.0912576988339424130000000   0.0196455996483564380000000   0.4395110011100769000000000
 0.0605093017220497130000000   0.0123183000832796100000000   0.4005590081214904800000000
 0.0318269990384578700000000   0.0090430900454521179000000   0.3636240065097808800000000
 0.0038592300843447447000000   0.0093690603971481323000000   0.3253169953823089600000000
-0.0185036007314920430000000   0.0111004998907446860000000   0.2866339981555938700000000
-0.0346812009811401370000000   0.0142903001978993420000000   0.2497539967298507700000000
-0.0310478005558252330000000   0.0236518997699022290000000   0.1800000071525573700000000
-0.0454391017556190490000000   0.0179638992995023730000000   0.2145510017871856700000000
 0.0907659009099006650000000   0.0294981002807617190000000   0.4764969944953918500000000
 0.0592897981405258180000000   0.0163052994757890700000000   0.4374240040779113800000000
 0.0287565998733043670000000   0.0099729998037219048000000   0.3983010053634643600000000
 0.0004202869895379990300000   0.0074970698915421963000000   0.3610189855098724400000000
-0.0266610998660326000000000   0.0080009903758764267000000   0.3226459920406341600000000
-0.0468799993395805360000000   0.0091435601934790611000000   0.2845270037651062000000000
-0.0606831982731819150000000   0.0113145001232624050000000   0.2483610063791275000000000
-0.0529737994074821470000000   0.0218071006238460540000000   0.1800000071525573700000000
-0.0690336972475051880000000   0.0141241000965237620000000   0.2139230072498321500000000
 0.0912171974778175350000000   0.0419505983591079710000000   0.5127710103988647500000000
 0.0590560995042324070000000   0.0229743998497724530000000   0.4745430052280426000000000
 0.0276055000722408290000000   0.0106646995991468430000000   0.4353339970111846900000000
-0.0026657599955797195000000   0.0048605198971927166000000   0.3960529863834381100000000
-0.0306046009063720700000000   0.0025658500380814075000000   0.3584119975566864000000000
-0.0564705990254879000000000   0.0025267500896006823000000   0.3199819922447204600000000
-0.0744244977831840520000000   0.0032677000854164362000000   0.2824249863624572800000000
-0.0857276991009712220000000   0.0046466700732707977000000   0.2469699978828430200000000
-0.0744699016213417050000000   0.0172771997749805450000000   0.1800000071525573700000000
-0.0917932987213134770000000   0.0072154598310589790000000   0.2132949978113174400000000
 0.0914772972464561460000000   0.0542176999151706700000000   0.5492799878120422400000000
 0.0602464005351066590000000   0.0324623994529247280000000   0.5110110044479370100000000
 0.0277852006256580350000000   0.0144169004634022710000000   0.4725880026817321800000000
-0.0036380500532686710000000   0.0028473299462348223000000   0.4332430064678192100000000
-0.0335646010935306550000000  -0.0026681099552661180000000   0.3938159942626953100000000
-0.0609639994800090790000000  -0.0052883899770677090000000   0.3558000028133392300000000
-0.0851980969309806820000000  -0.0062270401977002621000000   0.3173210024833679200000000
-0.1006850004196167000000000  -0.0060029202140867710000000   0.2803319990634918200000000
-0.1094549968838691700000000  -0.0051741800270974636000000   0.2455790042877197300000000
 0.0914539024233818050000000   0.0663081035017967220000000   0.5858290195465087900000000
 0.0616161003708839420000000   0.0423403009772300720000000   0.5476400256156921400000000
 0.0298241991549730300000000   0.0211398992687463760000000   0.5092480182647705100000000
-0.0029100100509822369000000   0.0039240499027073383000000   0.4706319868564605700000000
-0.0342692993581295010000000  -0.0070520201697945595000000   0.4311499893665313700000000
-0.0637577027082443240000000  -0.0125022996217012410000000   0.3915860056877136200000000
-0.0904475972056388850000000  -0.0157194007188081740000000   0.3531830012798309300000000
-0.1126149967312812800000000  -0.0176209993660449980000000   0.3146690130233764600000000
-0.1255089938640594500000000  -0.0179414004087448120000000   0.2782469987869262700000000
 0.0913982018828392030000000   0.0796452984213829040000000   0.6216670274734497100000000
 0.0629281029105186460000000   0.0521166995167732240000000   0.5842639803886413600000000
 0.0323905013501644130000000   0.0287653002887964250000000   0.5459949970245361300000000
 0.0000442402015323750670000   0.0081229796633124352000000   0.5074819922447204600000000
-0.0329280011355876920000000  -0.0083563597872853279000000   0.4686729907989502000000000
-0.0641748011112213130000000  -0.0189068000763654710000000   0.4290550053119659400000000
-0.0930906981229782100000000  -0.0245158001780509950000000   0.3893620073795318600000000
-0.1188189983367919900000000  -0.0285058002918958660000000   0.3505569994449615500000000
-0.1386190056800842300000000  -0.0312631987035274510000000   0.3120320141315460200000000
 0.0916998013854026790000000   0.0937974005937576290000000   0.6570950150489807100000000
 0.0645928010344505310000000   0.0626877024769783020000000   0.6202629804611206100000000
 0.0351498015224933620000000   0.0363547988235950470000000   0.5827010273933410600000000
 0.0038875699974596500000000   0.0136173004284501080000000   0.5443490147590637200000000
-0.0290306992828845980000000  -0.0064400699920952320000000   0.5057139992713928200000000
-0.0622263997793197630000000  -0.0222564991563558580000000   0.4667110145092010500000000
-0.0932836979627609250000000  -0.0325107984244823460000000   0.4269610047340393100000000
-0.1214110031723976100000000  -0.0385797992348670960000000   0.3871429860591888400000000
